# .PCD v0.7 - Point Cloud Data file format
VERSION 0.7
FIELDS x y z rgb
SIZE 4 4 4 4
TYPE F F F U
COUNT 1 1 1 1
WIDTH 1133
HEIGHT 1
VIEWPOINT 0 0 0 1 0 0 0
POINTS 1133
DATA ascii
-0.12928602 -0.18293831 1.5430001 6975081
-0.12201028 -0.18293831 1.5430001 6579551
-0.11488326 -0.18317543 1.5450001 6711137
-0.10773736 -0.18341255 1.5470001 6250586
-0.10057262 -0.18364966 1.549 6185563
-0.093449228 -0.18400535 1.552 6646116
-0.086353049 -0.18447959 1.5560001 7106667
-0.079269916 -0.18507239 1.5610001 6975849
-0.072185695 -0.18578374 1.567 6977144
-0.065086246 -0.18661368 1.5740001 6715771
-0.057884146 -0.18732503 1.58 6518394
-0.050657384 -0.18815497 1.5870001 6188142
-0.043337401 -0.18886632 1.5930001 5991017
-0.035960834 -0.18957768 1.5990001 6056294
-0.028509907 -0.19017048 1.6040001 6120542
-0.020998772 -0.19064471 1.608 5988184
-0.013433225 -0.19088185 1.6100001 5725012
-0.0058415602 -0.19088185 1.6100001 6053977
0.0017479307 -0.19064471 1.608 5790805
0.0093127582 -0.19028904 1.605 6382172
0.016849294 -0.18993336 1.6020001 5263945
0.024357537 -0.18957768 1.5990001 5130815
0.031877384 -0.18945912 1.598 7895138
0.039387804 -0.18934056 1.5970001 7631453
0.046888791 -0.18922199 1.5960001 7631453
0.054346252 -0.18898489 1.5940001 6841685
0.061784856 -0.18874776 1.5920001 5395531
0.069117539 -0.18827352 1.5880001 3817017
0.076316029 -0.18756215 1.582 2633773
0.083246104 -0.18637654 1.572 4280134
0.089851193 -0.18471672 1.5580001 4280648
0.096012324 -0.18246406 1.539 4344896
0.10179297 -0.17985575 1.5170001 4542021
0.10750978 -0.17748454 1.4970001 4147265
0.11342063 -0.17570615 1.4820001 3686714
0.11967751 -0.17463909 1.473 5068367
0.12576354 -0.17345349 1.4630001 5659989
0.13130188 -0.1716751 1.4480001 6186333
0.12248515 -0.15223123 1.284 6581345
0.12853961 -0.15223123 1.284 6909540
0.13459408 -0.15223123 1.284 7106919
0.097599581 -0.10563709 0.89100003 7370607
0.10122966 -0.10504429 0.88600004 7896953
0.10493155 -0.10457005 0.88200003 8817804
0.10896678 -0.10445149 0.88100004 9409941
0.11286418 -0.10421437 0.87900007 9673113
0.11687582 -0.10409581 0.87800002 9739419
0.12074021 -0.10385869 0.87600005 9805212
0.12472829 -0.10374013 0.87500006 9871005
0.12870693 -0.10362156 0.87400001 10002591
0.13267614 -0.10350301 0.87300003 10068384
0.13663593 -0.10338445 0.87200004 10068386
0.14074768 -0.10338445 0.87200004 10068386
0.14469332 -0.10326589 0.87100005 10068386
0.14880036 -0.10326589 0.87100005 10134179
0.1529074 -0.10326589 0.87100005 10134179
0.15683419 -0.10314734 0.87000006 10265765
0.1609365 -0.10314734 0.87000006 10332328
0.16503884 -0.10314734 0.87000006 10398119
0.16894674 -0.10302877 0.86900002 10529705
0.17304435 -0.10302877 0.86900002 10595498
0.17673428 -0.10279165 0.86700004 10595498
0.18082246 -0.10279165 0.86700004 10661293
0.18427081 -0.10243597 0.86400002 10661293
0.18812686 -0.10231741 0.86300004 10792109
0.19219618 -0.10231741 0.86300004 10923693
0.19558322 -0.10196172 0.86000001 10989486
0.19940627 -0.10184316 0.85900003 11055279
0.20416731 -0.10219885 0.86200005 11055279
0.2082319 -0.10219885 0.86200005 11186867
0.21106508 -0.10160605 0.85700005 11121074
0.21510611 -0.10160605 0.85700005 11186867
0.21889143 -0.10148749 0.85600007 11186867
0.22292775 -0.10148749 0.85600007 11252660
0.22696407 -0.10148749 0.85600007 11186867
0.23100038 -0.10148749 0.85600007 11121074
0.2350367 -0.10148749 0.85600007 11186867
0.23907301 -0.10148749 0.85600007 11186867
0.24339332 -0.10160605 0.85700005 11186867
0.24743435 -0.10160605 0.85700005 11186354
0.25147536 -0.10160605 0.85700005 11252147
0.25581455 -0.10172461 0.85800004 11252147
0.25986031 -0.10172461 0.85800004 11186354
0.26421362 -0.10184316 0.85900003 11186354
0.26826409 -0.10184316 0.85900003 11252147
0.27231452 -0.10184316 0.85900003 11252147
0.27636498 -0.10184316 0.85900003 11120561
0.28041545 -0.10184316 0.85900003 11252147
0.28446591 -0.10184316 0.85900003 11120561
0.2881805 -0.10172461 0.85800004 11449524
0.29188567 -0.10160605 0.85700005 11317938
0.29592672 -0.10160605 0.85700005 11252145
0.29961771 -0.10148749 0.85600007 11448754
0.30365402 -0.10148749 0.85600007 11579570
0.30769032 -0.10148749 0.85600007 11382191
0.31209081 -0.10160605 0.85700005 11251375
0.31650072 -0.10172461 0.85800004 11251375
0.32054648 -0.10172461 0.85800004 11251375
0.32497051 -0.10184316 0.85900003 11316398
0.32902098 -0.10184316 0.85900003 11382191
0.33307144 -0.10184316 0.85900003 11382191
0.33712187 -0.10184316 0.85900003 11316398
0.34077519 -0.10172461 0.85800004 11447727
0.34482092 -0.10172461 0.85800004 11316398
0.34846008 -0.10160605 0.85700005 11513518
0.35208979 -0.10148749 0.85600007 11381932
0.3561261 -0.10148749 0.85600007 11447725
0.35974166 -0.10136893 0.85500002 11447725
0.36377323 -0.10136893 0.85500002 11447725
0.36780483 -0.10136893 0.85500002 11513518
0.37140155 -0.10125037 0.85400003 11644334
0.37542844 -0.10125037 0.85400003 11512748
0.37945533 -0.10125037 0.85400003 11512748
0.38348222 -0.10125037 0.85400003 11644334
0.38705534 -0.1011318 0.85300004 11710127
0.39061904 -0.10101325 0.85200006 11775920
0.39463648 -0.10101325 0.85200006 11710127
0.398186 -0.10089468 0.85100001 11579311
0.40219873 -0.10089468 0.85100001 11776690
0.4062115 -0.10089468 0.85100001 11907506
0.41022423 -0.10089468 0.85100001 11710127
0.41423696 -0.10089468 0.85100001 11907506
0.4182497 -0.10089468 0.85100001 11973299
0.42275864 -0.10101325 0.85200006 11775920
0.42677611 -0.10101325 0.85200006 11841200
0.43079355 -0.10101325 0.85200006 11775407
0.434811 -0.10101325 0.85200006 11972786
0.43831339 -0.10089468 0.85100001 11841200
0.44232613 -0.10089468 0.85100001 11775407
0.44581437 -0.10077612 0.85000002 12038579
0.4498224 -0.10077612 0.85000002 11775407
0.45383042 -0.10077612 0.85000002 11775409
0.45783845 -0.10077612 0.85000002 11775407
0.46184647 -0.10077612 0.85000002 11906223
0.46585447 -0.10077612 0.85000002 11775407
0.47041526 -0.10089468 0.85100001 11907506
0.474428 -0.10089468 0.85100001 11644334
0.47900298 -0.10101325 0.85200006 11710129
0.48358735 -0.1011318 0.85300004 11513522
0.48875278 -0.10136893 0.85500002 11513522
0.49336076 -0.10148749 0.85600007 11710131
0.49855921 -0.10172461 0.85800004 11775411
0.50319076 -0.10184316 0.85900003 11644338
0.50842226 -0.10208029 0.86100006 11644338
0.51307732 -0.10219885 0.86200005 11710129
0.51774186 -0.10231741 0.86300004 11775922
0.52241582 -0.10243597 0.86400002 11841202
0.52648985 -0.10243597 0.86400002 11841202
0.52994984 -0.10231741 0.86300004 11710129
0.53340036 -0.10219885 0.86200005 11710129
0.53746492 -0.10219885 0.86200005 11578543
0.5409013 -0.10208029 0.86100006 11512748
0.54432827 -0.10196172 0.86000001 11447725
0.54774576 -0.10184316 0.85900003 11316139
0.55179626 -0.10184316 0.85900003 11119017
0.55519962 -0.10172461 0.85800004 11053224
-0.57729238 -0.08834359 0.77600002 7043429
-0.57363325 -0.08834359 0.77600002 7175015
-0.56997418 -0.08834359 0.77600002 7109735
-0.56631511 -0.08834359 0.77600002 6912870
-0.56265604 -0.08834359 0.77600002 7240808
-0.55899698 -0.08834359 0.77600002 7043688
-0.55533785 -0.08834359 0.77600002 7109481
-0.55167878 -0.08834359 0.77600002 7174761
-0.54801971 -0.08834359 0.77600002 7173991
-0.54436058 -0.08834359 0.77600002 7239784
-0.54070151 -0.08834359 0.77600002 7305577
-0.53704244 -0.08834359 0.77600002 7239784
-0.53338331 -0.08834359 0.77600002 7305064
-0.52972424 -0.08834359 0.77600002 7436650
-0.52606511 -0.08834359 0.77600002 7435880
-0.52240604 -0.08834359 0.77600002 7305064
-0.51874697 -0.08834359 0.77600002 7436650
-0.51508784 -0.08834359 0.77600002 7107685
-0.51142883 -0.08834359 0.77600002 7173993
-0.5077697 -0.08834359 0.77600002 7370861
-0.50411063 -0.08834359 0.77600002 7305066
-0.50045156 -0.08834359 0.77600002 7042409
-0.49679247 -0.08834359 0.77600002 7239786
-0.49313337 -0.08834359 0.77600002 7042407
-0.48947427 -0.08834359 0.77600002 7239786
-0.48581517 -0.08834359 0.77600002 7042407
-0.4821561 -0.08834359 0.77600002 7239786
-0.478497 -0.08834359 0.77600002 6910821
-0.4748379 -0.08834359 0.77600002 6976614
-0.47117883 -0.08834359 0.77600002 7173993
-0.46751973 -0.08834359 0.77600002 7042407
-0.46386063 -0.08834359 0.77600002 7239786
-0.46020153 -0.08834359 0.77600002 6976614
-0.45654249 -0.08834359 0.77600002 7239788
-0.45288339 -0.08834359 0.77600002 7239786
-0.44922432 -0.08834359 0.77600002 7239786
-0.44556522 -0.08834359 0.77600002 7173995
-0.44190612 -0.08834359 0.77600002 7108718
-0.43824705 -0.08834359 0.77600002 7306097
-0.43458796 -0.08834359 0.77600002 7306097
-0.43092886 -0.08834359 0.77600002 7306097
-0.71922123 -0.15129979 1.3290001 7503476
-0.72797543 -0.15448745 1.3570001 7371892
-0.72157675 -0.15448745 1.3570001 7700857
-0.71412396 -0.15425974 1.355 7635062
-0.70721239 -0.15414591 1.3540001 7897464
-0.70031035 -0.15403205 1.353 8161406
-0.69393051 -0.15403205 1.353 7503478
-0.68704253 -0.15391822 1.3520001 7897466
-0.67966044 -0.15369052 1.35 7963259
-0.67329478 -0.15369052 1.35 7963259
-0.66692907 -0.15369052 1.35 8028539
-0.6610527 -0.15380436 1.3510001 7962744
-0.65565151 -0.15403205 1.353 7896951
-0.65119117 -0.15448745 1.3570001 7831158
-0.64716828 -0.15505667 1.3620001 7896951
-0.64450961 -0.15596743 1.3700001 7502193
-0.64270687 -0.15710588 1.3800001 5724239
-0.64173192 -0.158472 1.3920001 5460813
-0.64064378 -0.15983814 1.404 5197898
-0.63944244 -0.16120428 1.416 4277568
-0.63723427 -0.16234274 1.4260001 4211773
-0.6344896 -0.16336733 1.4350001 4276796
-0.63166004 -0.16439195 1.4440001 4079417
-0.62788016 -0.16518885 1.4510001 3487280
-0.62446237 -0.16609961 1.4590001 3158315
-0.62054574 -0.16689652 1.4660001 3290925
-0.61656308 -0.16769344 1.473 3751476
-0.61251444 -0.16849035 1.48 4013878
-0.60880893 -0.16940111 1.488 4013878
-0.60462356 -0.17019802 1.4950001 3948085
-0.60077184 -0.17110878 1.503 4013878
-0.59684473 -0.17201954 1.511 4013878
-0.59245193 -0.17281646 1.5180001 4211257
-0.58760744 -0.17349952 1.524 3882292
-0.58232558 -0.17406875 1.529 4079669
-0.5766204 -0.17452413 1.5330001 4211257
-0.57013464 -0.17475182 1.5350001 4013878
-0.5632633 -0.17486565 1.536 4079671
-0.55602062 -0.17486565 1.536 4079671
-0.54877788 -0.17486565 1.536 4079417
-0.54118264 -0.17475182 1.5350001 4080187
-0.53394461 -0.17475182 1.5350001 4080187
-0.52636343 -0.17463797 1.534 3948855
-0.51946855 -0.17475182 1.5350001 3948855
-0.51289791 -0.17497951 1.5370001 4080441
-0.50696641 -0.17543489 1.5410001 4080441
-0.50132149 -0.17600411 1.5460001 4277050
-0.49594894 -0.17668718 1.552 4211257
-0.49020496 -0.17725641 1.557 4013878
-0.4844138 -0.17782563 1.562 4080187
-0.4779647 -0.17816716 1.5650001 3882808
-0.47058523 -0.17816716 1.5650001 4080187
-0.46290979 -0.17805332 1.5640001 4013878
-0.45436996 -0.17759794 1.5600001 3882808
-0.44586793 -0.17714256 1.5560001 3948601
-0.43712172 -0.17657334 1.5510001 3882808
-0.42814553 -0.17589027 1.5450001 3882808
-0.41922593 -0.1752072 1.539 3817015
-0.41036296 -0.17452413 1.5330001 3817015
-0.4018195 -0.1739549 1.5280001 3619636
-0.39383972 -0.17361337 1.5250001 3817015
-0.38639531 -0.17349952 1.524 3751222
-0.37970683 -0.17372721 1.526 3882808
-0.37324357 -0.17406875 1.529 3817015
-0.36723083 -0.17463797 1.534 3817015
-0.36117092 -0.1752072 1.539 3817015
-0.35506386 -0.17577642 1.544 3948601
-0.3486844 -0.1762318 1.5480001 3948601
-0.34226722 -0.17668718 1.552 3948601
-0.3355965 -0.17702872 1.5550001 3949371
-0.3284753 -0.17714256 1.5560001 3949371
-0.32134464 -0.17725641 1.557 3817785
-0.31420454 -0.17737025 1.5580001 3949371
-0.30685809 -0.17737025 1.5580001 3751992
-0.29970384 -0.17748408 1.559 4015164
-0.29272774 -0.17771178 1.5610001 3949373
-0.28573275 -0.17793947 1.5630001 4080959
-0.27871886 -0.17816716 1.5650001 4015166
-0.27168614 -0.17839485 1.567 4080959
-0.26480326 -0.17873639 1.5700001 4014913
-0.25756416 -0.17885023 1.5710001 4212292
-0.25015637 -0.17885023 1.5710001 3949120
-0.2427486 -0.17885023 1.5710001 4146752
-0.23519105 -0.17873639 1.5700001 3752254
-0.22764291 -0.17862254 1.5690001 4014913
-0.2199638 -0.17839485 1.567 3884612
-0.21243927 -0.17828101 1.5660001 4016711
-0.20479318 -0.17805332 1.5640001 4016713
-0.19729219 -0.17793947 1.5630001 3885127
-0.18955761 -0.17759794 1.5600001 3292475
-0.18185133 -0.17725641 1.557 3291190
-0.17406125 -0.17680103 1.5530001 3619638
-0.16630889 -0.17634565 1.549 2829352
-0.15859427 -0.17589027 1.5450001 3159087
-0.15091737 -0.17543489 1.5410001 2172962
-0.1433714 -0.17509335 1.5380001 3159087
-0.13594222 -0.17486565 1.536 5461070
-0.1286995 -0.17486565 1.536 6908770
-0.12145676 -0.17486565 1.536 8027767
-0.11436275 -0.17509335 1.5380001 8488318
-0.10724987 -0.17532104 1.5400001 7765619
-0.10018306 -0.17566258 1.5430001 6580321
-0.093148172 -0.17611796 1.5470001 7896951
-0.086075559 -0.17657334 1.5510001 8094843
-0.079016007 -0.17714256 1.5560001 6713192
-0.072001435 -0.17793947 1.5630001 5133396
-0.064879492 -0.17862254 1.5690001 4540491
-0.057774235 -0.17953329 1.577 4539721
-0.0505297 -0.18021637 1.5830001 4670276
-0.043228582 -0.18089944 1.5890001 8289394
-0.035870872 -0.1815825 1.595 8355185
-0.02843881 -0.18215172 1.6 6512722
-0.020946536 -0.18260711 1.6040001 7895138
-0.013399851 -0.1828348 1.6060001 7895138
-0.0058270469 -0.1828348 1.6060001 6381134
0.0017435827 -0.18260711 1.6040001 7434335
0.0092895487 -0.18226558 1.6010001 7565921
0.016796704 -0.1818102 1.5970001 7894627
0.024266139 -0.18135482 1.5930001 5919552
0.031717796 -0.18101327 1.59 7763039
0.039165828 -0.1807856 1.5880001 7499867
0.046565618 -0.18044406 1.585 7170902
0.053903028 -0.17998868 1.5810001 6973525
0.061241519 -0.17964715 1.5780001 5724237
0.068508193 -0.17919177 1.5740001 5725266
0.075640664 -0.1785087 1.5680001 2830122
0.082610637 -0.17759794 1.5600001 3359032
0.089216813 -0.17611796 1.5470001 4411720
0.095450848 -0.17418259 1.5300001 3819068
0.10139036 -0.17201954 1.511 4344642
0.10722251 -0.16997033 1.493 4081472
0.1133441 -0.1686042 1.4810001 3949886
0.11975875 -0.16780728 1.4740001 5199440
0.12576354 -0.16655499 1.4630001 5856600
0.13130188 -0.16484731 1.4480001 6251610
0.12248515 -0.14617676 1.284 6711391
0.12853961 -0.14617676 1.284 6908770
0.13459408 -0.14617676 1.284 6975333
0.097599581 -0.10143574 0.89100003 7370091
0.10111541 -0.10075267 0.88500005 7896700
0.10481258 -0.10029729 0.88100004 8620938
0.1088431 -0.10018346 0.88000005 9213075
0.11273578 -0.09995576 0.87800002 9542040
0.1167427 -0.099841915 0.87700003 9805212
0.12074021 -0.09972807 0.87600005 9805212
0.12472829 -0.099614233 0.87500006 9740189
0.12870693 -0.09950038 0.87400001 9871775
0.13267614 -0.099386536 0.87300003 10068384
0.13663593 -0.099272691 0.87200004 10002591
0.14058627 -0.099158853 0.87100005 10134177
0.14469332 -0.099158853 0.87100005 10068384
0.14862952 -0.099045008 0.87000006 10134177
0.15273185 -0.099045008 0.87000006 10265763
0.15683419 -0.099045008 0.87000006 10331556
0.1609365 -0.099045008 0.87000006 10332328
0.16503884 -0.099045008 0.87000006 10332328
0.16894674 -0.098931156 0.86900002 10529707
0.17304435 -0.098931156 0.86900002 10595500
0.17612274 -0.098361932 0.86400002 10792877
0.18019678 -0.098361932 0.86400002 10661291
0.18427081 -0.098361932 0.86400002 10661291
0.18812686 -0.098248087 0.86300004 10792877
0.19219618 -0.098248087 0.86300004 10923693
0.19558322 -0.097906552 0.86000001 10923695
0.19940627 -0.097792707 0.85900003 11055281
0.20416731 -0.098134249 0.86200005 11186867
0.20799033 -0.098020405 0.86100006 11252660
0.21131137 -0.097678863 0.85800004 11055281
0.21510611 -0.097565025 0.85700005 11056051
0.21889143 -0.09745118 0.85600007 10990258
0.22292775 -0.09745118 0.85600007 11121844
0.22696407 -0.09745118 0.85600007 11252660
0.23100038 -0.09745118 0.85600007 11186867
0.2350367 -0.09745118 0.85600007 11186867
0.2393523 -0.097565025 0.85700005 11252660
0.24339332 -0.097565025 0.85700005 11186354
0.24772306 -0.097678863 0.85800004 11317940
0.2517688 -0.097678863 0.85800004 11252147
0.25611269 -0.097792707 0.85900003 11252147
0.26016316 -0.097792707 0.85900003 11252147
0.26452121 -0.097906552 0.86000001 11252147
0.26888871 -0.098020405 0.86100006 11317170
0.27294856 -0.098020405 0.86100006 11382963
0.27700847 -0.098020405 0.86100006 11382963
0.2807419 -0.097906552 0.86000001 11382963
0.28479707 -0.097906552 0.86000001 11252147
0.28851637 -0.097792707 0.85900003 11449526
0.29222625 -0.097678863 0.85800004 11317940
0.29592672 -0.097565025 0.85700005 11449526
0.29961771 -0.09745118 0.85600007 11515319
0.30365402 -0.09745118 0.85600007 11449524
0.30769032 -0.09745118 0.85600007 11317938
0.31209081 -0.097565025 0.85700005 11251375
0.31613183 -0.097565025 0.85700005 11251375
0.32054648 -0.097678863 0.85800004 11317168
0.3245922 -0.097678863 0.85800004 11382191
0.32902098 -0.097792707 0.85900003 11381934
0.33307144 -0.097792707 0.85900003 11381934
0.33712187 -0.097792707 0.85900003 11381934
0.34077519 -0.097678863 0.85800004 11316141
0.34482092 -0.097678863 0.85800004 11513520
0.34846008 -0.097565025 0.85700005 11381934
0.35208979 -0.09745118 0.85600007 11447727
0.3561261 -0.09745118 0.85600007 11579311
0.35974166 -0.097337328 0.85500002 11578541
0.36377323 -0.097337328 0.85500002 11513518
0.36780483 -0.097337328 0.85500002 11513518
0.37183642 -0.097337328 0.85500002 11513520
0.37586805 -0.097337328 0.85500002 11513520
0.37989965 -0.097337328 0.85500002 11579313
0.38348222 -0.097223483 0.85400003 11513518
0.38750911 -0.097223483 0.85400003 11579313
0.39107752 -0.097109646 0.85300004 11645106
0.39509967 -0.097109646 0.85300004 11579313
0.39865392 -0.096995801 0.85200006 11579311
0.40219873 -0.096881948 0.85100001 11710127
0.4062115 -0.096881948 0.85100001 11775920
0.41022423 -0.096881948 0.85100001 11775920
0.41423696 -0.096881948 0.85100001 11710127
0.4182497 -0.096881948 0.85100001 11710127
0.42226243 -0.096881948 0.85100001 11973299
0.42627516 -0.096881948 0.85100001 11907506
0.4302879 -0.096881948 0.85100001 11775920
0.43430063 -0.096881948 0.85100001 11710127
0.43831339 -0.096881948 0.85100001 11710127
0.44180635 -0.096768104 0.85000002 11841200
0.44581437 -0.096768104 0.85000002 11841200
0.4498224 -0.096768104 0.85000002 11841200
0.45329651 -0.096654259 0.84900004 11775407
0.45783845 -0.096768104 0.85000002 11709614
0.46184647 -0.096768104 0.85000002 11775407
0.46585447 -0.096768104 0.85000002 11775409
0.46986249 -0.096768104 0.85000002 11775409
0.474428 -0.096881948 0.85100001 11644334
0.47900298 -0.096995801 0.85200006 11710127
0.48358735 -0.097109646 0.85300004 11644334
0.48818114 -0.097223483 0.85400003 11578541
0.49336076 -0.09745118 0.85600007 11644334
0.49797815 -0.097565025 0.85700005 11775409
0.50319076 -0.097792707 0.85900003 11972788
0.50842226 -0.098020405 0.86100006 11775409
0.51307732 -0.098134249 0.86200005 11841202
0.51774186 -0.098248087 0.86300004 11841202
0.52241582 -0.098361932 0.86400002 11841202
0.52648985 -0.098361932 0.86400002 11841202
0.52994984 -0.098248087 0.86300004 11709616
0.53340036 -0.098134249 0.86200005 11775409
0.53746492 -0.098134249 0.86200005 11644336
0.5409013 -0.098020405 0.86100006 11315371
0.54432827 -0.097906552 0.86000001 11512750
0.54774576 -0.097792707 0.85900003 11118760
0.5511539 -0.097678863 0.85800004 11119017
0.55519962 -0.097678863 0.85800004 10921638
-0.57729238 -0.084684499 0.77600002 7043429
-0.57363325 -0.084684499 0.77600002 7241321
-0.56997418 -0.084684499 0.77600002 7241321
-0.56631511 -0.084684499 0.77600002 7240554
-0.56265604 -0.084684499 0.77600002 7109481
-0.55899698 -0.084684499 0.77600002 6978409
-0.55533785 -0.084684499 0.77600002 6715237
-0.55167878 -0.084684499 0.77600002 7043688
-0.54801971 -0.084684499 0.77600002 7109481
-0.54436058 -0.084684499 0.77600002 7043688
-0.54070151 -0.084684499 0.77600002 7174761
-0.53704244 -0.084684499 0.77600002 7306347
-0.53338331 -0.084684499 0.77600002 7043177
-0.52972424 -0.084684499 0.77600002 6911591
-0.52606511 -0.084684499 0.77600002 7305579
-0.52240604 -0.084684499 0.77600002 7173993
-0.51874697 -0.084684499 0.77600002 7042407
-0.51508784 -0.084684499 0.77600002 7370857
-0.51142883 -0.084684499 0.77600002 7370859
-0.5077697 -0.084684499 0.77600002 7043177
-0.50411063 -0.084684499 0.77600002 6911593
-0.50045156 -0.084684499 0.77600002 6845800
-0.49679247 -0.084684499 0.77600002 7173741
-0.49313337 -0.084684499 0.77600002 6976616
-0.48947427 -0.084684499 0.77600002 6910823
-0.48581517 -0.084684499 0.77600002 7042407
-0.4821561 -0.084684499 0.77600002 7173993
-0.478497 -0.084684499 0.77600002 7042407
-0.4748379 -0.084684499 0.77600002 7370859
-0.47117883 -0.084684499 0.77600002 6910823
-0.46751973 -0.084684499 0.77600002 6910821
-0.46386063 -0.084684499 0.77600002 6976614
-0.46020153 -0.084684499 0.77600002 6976614
-0.45654249 -0.084684499 0.77600002 7173995
-0.45288339 -0.084684499 0.77600002 7239786
-0.44922432 -0.084684499 0.77600002 7108970
-0.44556522 -0.084684499 0.77600002 7043177
-0.44190612 -0.084684499 0.77600002 6911593
-0.43824705 -0.084684499 0.77600002 7240558
-0.43458796 -0.084684499 0.77600002 7174765
-0.43092886 -0.084684499 0.77600002 7306351
-0.71868002 -0.14492399 1.3280001 7306610
-0.72958475 -0.14841613 1.36 7307126
-0.72104496 -0.14797962 1.3560001 7635064
-0.71254289 -0.1475431 1.3520001 7701370
-0.70616782 -0.1475431 1.3520001 7898749
-0.69979274 -0.1475431 1.3520001 7964540
-0.69290471 -0.14743397 1.3510001 7240304
-0.68602616 -0.14732483 1.35 7831673
-0.67915702 -0.14721571 1.3490001 7897466
-0.6722973 -0.14710657 1.348 7963259
-0.66643512 -0.14721571 1.3490001 7831673
-0.66056341 -0.14732483 1.35 7831673
-0.65516692 -0.1475431 1.3520001 7831673
-0.6507113 -0.14797962 1.3560001 7831673
-0.64716828 -0.14863439 1.3620001 7765878
-0.64450961 -0.14950743 1.3700001 7305581
-0.64270687 -0.15059872 1.3800001 5395277
-0.64173192 -0.15190828 1.3920001 5460813
-0.64110011 -0.15332696 1.4050001 4868933
-0.63989407 -0.15463652 1.4170001 4474175
-0.63768113 -0.1557278 1.427 4079417
-0.63537389 -0.15681911 1.437 4277050
-0.63253492 -0.15780127 1.4460001 4013878
-0.62961107 -0.15878344 1.455 2895913
-0.62660241 -0.1597656 1.4640001 2237213
-0.6230855 -0.16063865 1.4720001 2237467
-0.61949313 -0.16151166 1.48 2237467
-0.61582536 -0.1623847 1.488 2105881
-0.611673 -0.16314863 1.4950001 2040088
-0.60785896 -0.16402164 1.503 2040088
-0.60356987 -0.16478556 1.5100001 2105627
-0.59960973 -0.16565859 1.5180001 2105627
-0.59518391 -0.1664225 1.5250001 2105624
-0.5903064 -0.16707727 1.531 2040086
-0.58499151 -0.16762292 1.536 2171674
-0.57887721 -0.1679503 1.539 2302749
-0.5723632 -0.16816857 1.5410001 2171420
-0.56583029 -0.16838683 1.5430001 2368799
-0.55855459 -0.16838683 1.5430001 2368799
-0.55127889 -0.16838683 1.5430001 2500639
-0.54365057 -0.1682777 1.5420001 2435362
-0.53603172 -0.16816857 1.5410001 2961706
-0.52876538 -0.16816857 1.5410001 3027499
-0.5214991 -0.16816857 1.5410001 3027499
-0.51456642 -0.1682777 1.5420001 3094316
-0.50795335 -0.16849595 1.544 3160109
-0.50196999 -0.16893248 1.5480001 3356718
-0.49626851 -0.16947813 1.5530001 3685683
-0.49051979 -0.17002377 1.5580001 3488304
-0.4844138 -0.17046028 1.562 3685683
-0.4779647 -0.17078768 1.5650001 3751222
-0.47088593 -0.17089681 1.5660001 3751476
-0.46320575 -0.17078768 1.5650001 3883062
-0.45524374 -0.17056942 1.5630001 3883062
-0.44672751 -0.17013289 1.559 3686453
-0.43824902 -0.16969639 1.5550001 3686453
-0.42980823 -0.16925988 1.5510001 3817269
-0.42140517 -0.16882335 1.5470001 3685683
-0.41277212 -0.1682777 1.5420001 3620406
-0.40471217 -0.1679503 1.539 3488820
-0.3966805 -0.16762292 1.536 3620406
-0.38918427 -0.1675138 1.5350001 3686199
-0.38219506 -0.16762292 1.536 3686199
-0.37568465 -0.1679503 1.539 3554613
-0.36914599 -0.1682777 1.5420001 3751992
-0.36304834 -0.16882335 1.5470001 3620406
-0.35644364 -0.16915074 1.5500001 3882808
-0.35003588 -0.16958725 1.554 3751222
-0.3433699 -0.16991465 1.557 3817015
-0.33624396 -0.17002377 1.5580001 3751222
-0.32931969 -0.17024203 1.5600001 3882808
-0.32196379 -0.17024203 1.5600001 3817015
-0.31460789 -0.17024203 1.5600001 3882808
-0.30744895 -0.17035116 1.5610001 3948601
-0.30008835 -0.17035116 1.5610001 3948601
-0.29291525 -0.17046028 1.562 4080187
-0.28591555 -0.17067856 1.5640001 4080187
-0.27889696 -0.17089681 1.5660001 3948601
-0.27185953 -0.17111507 1.5680001 4080187
-0.26463461 -0.17122421 1.5690001 4145980
-0.25740018 -0.17133333 1.5700001 3882808
-0.24999714 -0.17133333 1.5700001 4145980
-0.24243957 -0.17122421 1.5690001 3948601
-0.23489144 -0.17111507 1.5680001 3948601
-0.22720765 -0.17089681 1.5660001 3817787
-0.2195427 -0.17067856 1.5640001 3948603
-0.21189663 -0.17046028 1.562 4080189
-0.20440036 -0.17035116 1.5610001 4080189
-0.19666106 -0.17002377 1.5580001 3882810
-0.18907158 -0.16980553 1.5560001 3948601
-0.18126734 -0.169369 1.552 3882808
-0.17350085 -0.16893248 1.5480001 3817015
-0.16577207 -0.16849595 1.544 3948601
-0.15808102 -0.16805944 1.5400001 4080187
-0.15052561 -0.16773206 1.5370001 4080187
-0.14299852 -0.16740467 1.534 4212027
-0.13567671 -0.16729555 1.5330001 4211773
-0.12836434 -0.16718641 1.5320001 4343359
-0.12121954 -0.16729555 1.5330001 4409152
-0.11413968 -0.1675138 1.5350001 4278085
-0.10704093 -0.16773206 1.5370001 4475464
-0.099988282 -0.16805944 1.5400001 4738119
-0.092967533 -0.16849595 1.544 4935498
-0.085964561 -0.1690416 1.549 5066314
-0.078914441 -0.16958725 1.554 5000519
-0.071863234 -0.17024203 1.5600001 5000519
-0.06479679 -0.17100593 1.567 5000519
-0.057664335 -0.17176986 1.5740001 4934980
-0.050433937 -0.17242461 1.58 4738117
-0.043146968 -0.1730794 1.5860001 4803910
-0.035780918 -0.17362505 1.5910001 5067084
-0.028367713 -0.1741707 1.5960001 4737866
-0.020881241 -0.17449808 1.5990001 4803912
-0.013358132 -0.17471634 1.6010001 4868933
-0.0058089052 -0.17471634 1.6010001 4803137
0.0017392345 -0.1746072 1.6 5000514
0.0092605371 -0.1741707 1.5960001 5460293
0.016744116 -0.17373419 1.5920001 5921098
0.024189973 -0.17329766 1.5880001 5657926
0.031578161 -0.17275201 1.5830001 5723719
0.038943857 -0.17231549 1.5790001 5460547
0.046242453 -0.17176986 1.5740001 5394754
0.053459801 -0.17111507 1.5680001 5527110
0.060659375 -0.17056942 1.5630001 4540990
0.067855321 -0.17013289 1.559 4080441
0.074965298 -0.16958725 1.554 3356466
0.081922211 -0.16882335 1.5470001 2830892
0.088582434 -0.16762292 1.536 3819583
0.094889373 -0.16598597 1.521 3424823
0.10085355 -0.16402164 1.503 3556663
0.10693525 -0.16249384 1.4890001 3621943
0.1131145 -0.16129342 1.478 3555126
0.11967751 -0.16074777 1.473 4607050
0.12576354 -0.15965647 1.4630001 5199440
0.13130188 -0.15801953 1.4480001 5923161
0.12248515 -0.14012228 1.284 6448989
0.12853961 -0.14012228 1.284 6646368
0.13459408 -0.14012228 1.284 7041126
0.096832804 -0.09647049 0.88400006 7370091
0.1008869 -0.096361354 0.88300002 7896953
0.10481258 -0.096143097 0.88100004 8752009
0.10871942 -0.095924839 0.87900007 9147280
0.11273578 -0.095815703 0.87800002 9476245
0.1167427 -0.095706575 0.87700003 9739417
0.12060238 -0.095488325 0.87500006 9805212
0.12458574 -0.095379189 0.87400001 9674396
0.12855966 -0.09527006 0.87300003 9871775
0.13252416 -0.095160931 0.87200004 9871775
0.13647923 -0.095051803 0.87100005 9871775
0.14058627 -0.095051803 0.87100005 9871775
0.1445272 -0.094942674 0.87000006 10003361
0.14862952 -0.094942674 0.87000006 10003361
0.1525563 -0.094833538 0.86900002 10199970
0.15665391 -0.094833538 0.86900002 10331556
0.16075151 -0.094833538 0.86900002 10134949
0.16484913 -0.094833538 0.86900002 10332328
0.16894674 -0.094833538 0.86900002 10463914
0.17284523 -0.094724409 0.86800003 10595500
0.17612274 -0.094287895 0.86400002 10661293
0.18019678 -0.094287895 0.86400002 10792879
0.18427081 -0.094287895 0.86400002 10858672
0.18812686 -0.094178766 0.86300004 10792879
0.19219618 -0.094178766 0.86300004 10989488
0.19558322 -0.093851373 0.86000001 11055281
0.19940627 -0.093742244 0.85900003 11055027
0.20345673 -0.093742244 0.85900003 11056051
0.20750719 -0.093742244 0.85900003 11056051
0.21131137 -0.093633115 0.85800004 11121844
0.21510611 -0.093523987 0.85700005 11121844
0.21889143 -0.093414865 0.85600007 11121844
0.2234486 -0.093633115 0.85800004 11384246
0.22749434 -0.093633115 0.85800004 11384246
0.2320798 -0.093851373 0.86000001 11186867
0.23586041 -0.093742244 0.85900003 11186867
0.23991087 -0.093742244 0.85900003 11186867
0.24396132 -0.093742244 0.85900003 11252660
0.24772306 -0.093633115 0.85800004 11252147
0.25206223 -0.093742244 0.85900003 11252147
0.25641087 -0.093851373 0.86000001 11252147
0.26076892 -0.093960509 0.86100006 11252147
0.26513639 -0.094069637 0.86200005 11186354
0.26951328 -0.094178766 0.86300004 11252147
0.27358258 -0.094178766 0.86300004 11186354
0.27765191 -0.094178766 0.86300004 11317170
0.28139481 -0.094069637 0.86200005 11382963
0.28512824 -0.093960509 0.86100006 11448756
0.28851637 -0.093742244 0.85900003 11448756
0.29222625 -0.093633115 0.85800004 11646135
0.29592672 -0.093523987 0.85700005 11448756
0.29961771 -0.093414865 0.85600007 11580340
0.30329925 -0.093305729 0.85500002 11448754
0.30733088 -0.093305729 0.85500002 11382961
0.31172666 -0.093414865 0.85600007 11317168
0.31576297 -0.093414865 0.85600007 11251375
0.32054648 -0.093633115 0.85800004 11185582
0.32421392 -0.093523987 0.85700005 11251375
0.32863796 -0.093633115 0.85800004 11185582
0.33268371 -0.093633115 0.85800004 11185582
0.33672944 -0.093633115 0.85800004 11447725
0.34077519 -0.093633115 0.85800004 11447727
0.34441903 -0.093523987 0.85700005 11447727
0.34846008 -0.093523987 0.85700005 11579313
0.35208979 -0.093414865 0.85600007 11513518
0.3561261 -0.093414865 0.85600007 11645104
0.36016244 -0.093414865 0.85600007 11579311
0.36377323 -0.093305729 0.85500002 11513518
0.36780483 -0.093305729 0.85500002 11579311
0.37183642 -0.093305729 0.85500002 11381932
0.37586805 -0.093305729 0.85500002 11578541
0.37989965 -0.093305729 0.85500002 11512748
0.38393125 -0.093305729 0.85500002 11644334
0.38750911 -0.093196601 0.85400003 11710127
0.39107752 -0.093087472 0.85300004 11775920
0.39509967 -0.093087472 0.85300004 11775920
0.39865392 -0.092978343 0.85200006 11841200
0.40219873 -0.092869207 0.85100001 11775407
0.40573415 -0.092760079 0.85000002 11841200
0.40974218 -0.092760079 0.85000002 11775407
0.4137502 -0.092760079 0.85000002 11972786
0.41775823 -0.092760079 0.85000002 11710127
0.42226243 -0.092869207 0.85100001 11907506
0.42627516 -0.092869207 0.85100001 11644334
0.4302879 -0.092869207 0.85100001 11710127
0.43430063 -0.092869207 0.85100001 11775407
0.43831339 -0.092869207 0.85100001 11841200
0.44180635 -0.092760079 0.85000002 11972786
0.44581437 -0.092760079 0.85000002 11709614
0.44929323 -0.09265095 0.84900004 11775407
0.45329651 -0.09265095 0.84900004 11972786
0.45729983 -0.09265095 0.84900004 11709614
0.46130314 -0.09265095 0.84900004 11841200
0.46585447 -0.092760079 0.85000002 11775407
0.46986249 -0.092760079 0.85000002 11709616
0.474428 -0.092869207 0.85100001 11709616
0.47844073 -0.092869207 0.85100001 11775407
0.48358735 -0.093087472 0.85300004 11972786
0.48818114 -0.093196601 0.85400003 11709616
0.49278438 -0.093305729 0.85500002 11710129
0.49797815 -0.093523987 0.85700005 11775922
0.50319076 -0.093742244 0.85900003 11578545
0.50842226 -0.093960509 0.86100006 11644338
0.51307732 -0.094069637 0.86200005 11907508
0.51774186 -0.094178766 0.86300004 11775409
0.52241582 -0.094287895 0.86400002 11775409
0.52648985 -0.094287895 0.86400002 11709616
0.52994984 -0.094178766 0.86300004 11775409
0.53340036 -0.094069637 0.86200005 11775409
0.53746492 -0.094069637 0.86200005 11578030
0.5409013 -0.093960509 0.86100006 11184555
0.54432827 -0.093851373 0.86000001 11316139
0.54774576 -0.093742244 0.85900003 11316392
0.5511539 -0.093633115 0.85800004 11184806
0.55519962 -0.093633115 0.85800004 11184804
-0.57729238 -0.081025414 0.77600002 7175015
-0.57363325 -0.081025414 0.77600002 7042911
-0.56997418 -0.081025414 0.77600002 7109733
-0.56631511 -0.081025414 0.77600002 7175528
-0.56265604 -0.081025414 0.77600002 7109222
-0.55899698 -0.081025414 0.77600002 7305831
-0.55533785 -0.081025414 0.77600002 7175015
-0.55167878 -0.081025414 0.77600002 6911591
-0.54801971 -0.081025414 0.77600002 7108970
-0.54436058 -0.081025414 0.77600002 7042405
-0.54070151 -0.081025414 0.77600002 7173991
-0.53704244 -0.081025414 0.77600002 7173991
-0.53338331 -0.081025414 0.77600002 7173993
-0.52972424 -0.081025414 0.77600002 7173993
-0.52606511 -0.081025414 0.77600002 6845800
-0.52240604 -0.081025414 0.77600002 7305581
-0.51874697 -0.081025414 0.77600002 6911591
-0.51508784 -0.081025414 0.77600002 7239271
-0.51142883 -0.081025414 0.77600002 7239273
-0.5077697 -0.081025414 0.77600002 7041894
-0.50411063 -0.081025414 0.77600002 6845800
-0.50045156 -0.081025414 0.77600002 6911593
-0.49679247 -0.081025414 0.77600002 6976616
-0.49313337 -0.081025414 0.77600002 6976616
-0.48947427 -0.081025414 0.77600002 6910821
-0.48581517 -0.081025414 0.77600002 6976614
-0.4821561 -0.081025414 0.77600002 7043177
-0.478497 -0.081025414 0.77600002 7043177
-0.4748379 -0.081025414 0.77600002 6714214
-0.47117883 -0.081025414 0.77600002 6845800
-0.46751973 -0.081025414 0.77600002 6582628
-0.46386063 -0.081025414 0.77600002 6714212
-0.46020153 -0.081025414 0.77600002 6780005
-0.45654249 -0.081025414 0.77600002 6911591
-0.45288339 -0.081025414 0.77600002 6780007
-0.44922432 -0.081025414 0.77600002 7043179
-0.44556522 -0.081025414 0.77600002 7108972
-0.44190612 -0.081025414 0.77600002 7043179
-0.43824705 -0.081025414 0.77600002 7240558
-0.43458796 -0.081025414 0.77600002 7108972
-0.43092886 -0.081025414 0.77600002 7306351
-0.71922123 -0.13876647 1.3290001 7635062
-0.71617329 -0.13939294 1.335 7503476
-0.72051322 -0.14148122 1.355 7635062
-0.71096182 -0.14085475 1.3490001 7700855
-0.70460087 -0.14085475 1.3490001 7832443
-0.69875753 -0.14095916 1.35 8096128
-0.69187897 -0.14085475 1.3490001 7306612
-0.68500984 -0.14075033 1.348 7699834
-0.67815018 -0.14064592 1.3470001 7765367
-0.67179859 -0.14064592 1.3470001 8028537
-0.66544706 -0.14064592 1.3470001 7962744
-0.66007411 -0.14085475 1.3490001 7963257
-0.65468234 -0.14106357 1.3510001 7700085
-0.65023142 -0.14148122 1.355 7765880
-0.64669311 -0.14210771 1.3610001 7700087
-0.64450961 -0.14304745 1.3700001 7370607
-0.64270687 -0.14409159 1.3800001 5461072
-0.64173192 -0.14534456 1.3920001 5329738
-0.64110011 -0.14670195 1.4050001 4869187
-0.63989407 -0.14795491 1.4170001 4277566
-0.63857484 -0.14920788 1.429 4080187
-0.63625818 -0.15025201 1.439 4013624
-0.63384724 -0.15129617 1.4490001 3882292
-0.63134199 -0.15234031 1.4590001 2895913
-0.6287424 -0.15338445 1.4690001 2040604
-0.62604851 -0.15442859 1.4790001 2106397
-0.62284172 -0.15536831 1.488 2040604
-0.61955011 -0.15630805 1.4970001 1645846
-0.61576444 -0.15714337 1.5050001 1580053
-0.61190331 -0.15797868 1.5130001 1580053
-0.60796672 -0.15881398 1.521 1514262
-0.60355973 -0.15954489 1.5280001 1514260
-0.59947699 -0.1603802 1.536 1448467
-0.59493327 -0.1611111 1.5430001 1448721
-0.58956182 -0.16163318 1.5480001 1580307
-0.58414316 -0.16215524 1.5530001 1580053
-0.57793456 -0.16246849 1.5560001 1514260
-0.57096422 -0.16257289 1.557 1580053
-0.56398445 -0.16267732 1.5580001 1645846
-0.556638 -0.16267732 1.5580001 1777432
-0.54929155 -0.16267732 1.5580001 1645846
-0.54124939 -0.16246849 1.5560001 1580053
-0.53356922 -0.16236407 1.5550001 1645846
-0.52589846 -0.16225965 1.554 1645846
-0.51857084 -0.16225965 1.554 1580307
-0.51157224 -0.16236407 1.5550001 1843479
-0.50521272 -0.16267732 1.5580001 1843479
-0.49882495 -0.16299056 1.5610001 1777686
-0.49272367 -0.1634082 1.5650001 1908248
-0.48627457 -0.16372146 1.5680001 1974041
-0.47979718 -0.16403469 1.5710001 1843225
-0.47269008 -0.16413911 1.572 1777434
-0.46527758 -0.16413911 1.572 1909018
-0.45757386 -0.16403469 1.5710001 2171163
-0.44930649 -0.16372146 1.5680001 2105627
-0.44106734 -0.1634082 1.5650001 2040604
-0.4328565 -0.16309497 1.562 2106397
-0.42467397 -0.16278172 1.559 1974811
-0.41651973 -0.16246849 1.5560001 1909788
-0.40865672 -0.16225965 1.554 2238753
-0.40081263 -0.16205083 1.552 2436132
-0.39349443 -0.16205083 1.552 2370339
-0.38642511 -0.16215524 1.5530001 2370339
-0.37959042 -0.16236407 1.5550001 2896683
-0.3729763 -0.16267732 1.5580001 2896683
-0.36633387 -0.16299056 1.5610001 3422257
-0.35966316 -0.16330381 1.5640001 3028269
-0.35273886 -0.16351263 1.5660001 3159855
-0.34579575 -0.16372146 1.5680001 3226161
-0.33861795 -0.16382587 1.5690001 3489333
-0.33121961 -0.16382587 1.5690001 3291441
-0.32382131 -0.16382587 1.5690001 3554613
-0.31642294 -0.16382587 1.5690001 3685429
-0.3090246 -0.16382587 1.5690001 3685429
-0.30162627 -0.16382587 1.5690001 3751222
-0.29441547 -0.16393028 1.5700001 3751222
-0.28719521 -0.16403469 1.5710001 3751476
-0.27996552 -0.16413911 1.572 3817269
-0.27289981 -0.16434795 1.5740001 3817015
-0.26564658 -0.16445234 1.575 3882808
-0.25821993 -0.16445234 1.575 3817015
-0.25079331 -0.16445234 1.575 3751222
-0.24321216 -0.16434795 1.5740001 3882808
-0.23549065 -0.16413911 1.572 3817015
-0.22778799 -0.16393028 1.5700001 3751992
-0.22010419 -0.16372146 1.5680001 3817015
-0.21243927 -0.16351263 1.5660001 4080187
-0.20479318 -0.16330381 1.5640001 3882808
-0.19703974 -0.16299056 1.5610001 3948601
-0.1893146 -0.16267732 1.5580001 3751476
-0.18150093 -0.16225965 1.554 3883062
-0.17372501 -0.161842 1.5500001 3882808
-0.16598681 -0.16142435 1.5460001 3948601
-0.15838897 -0.1611111 1.5430001 3948601
-0.15072149 -0.16069344 1.539 3948601
-0.14327818 -0.16048461 1.5370001 4080187
-0.13585372 -0.16027579 1.5350001 4080187
-0.12861571 -0.16027579 1.5350001 4343359
-0.12137768 -0.16027579 1.5350001 4277566
-0.11428839 -0.16048461 1.5370001 4211773
-0.10718022 -0.16069344 1.539 4277566
-0.10011813 -0.16100669 1.5420001 4343359
-0.093027748 -0.16131993 1.5450001 4409152
-0.085964561 -0.16173758 1.549 4409152
-0.078965224 -0.16236407 1.5550001 4343361
-0.071863234 -0.16288614 1.5600001 4409152
-0.06479679 -0.16361703 1.567 4409152
-0.057627697 -0.16424352 1.5730001 4672324
-0.050402019 -0.16487001 1.5790001 4409152
-0.043092556 -0.16539209 1.5840001 4409152
-0.035735939 -0.16591415 1.5890001 4737347
-0.028314391 -0.16633181 1.5930001 4540738
-0.020855125 -0.16674948 1.5970001 4540738
-0.013341445 -0.1669583 1.5990001 4606531
-0.0058016488 -0.1669583 1.5990001 4343359
0.0017359735 -0.16674948 1.5970001 4540992
0.0092489328 -0.16643623 1.5940001 4343613
0.016712563 -0.16591415 1.5890001 4277820
0.024129042 -0.16539209 1.5840001 4212027
0.03147842 -0.1647656 1.5780001 4146234
0.038795877 -0.16424352 1.5730001 3948085
0.045978043 -0.1634082 1.5650001 3882292
0.053050671 -0.16246849 1.5560001 3422511
0.060154852 -0.161842 1.5500001 3422511
0.067289501 -0.16142435 1.5460001 2895913
0.074338183 -0.16090228 1.5410001 2895913
0.081339702 -0.1603802 1.536 2830120
0.088005722 -0.15933605 1.526 2502438
0.094390288 -0.15797868 1.5130001 2502438
0.10031674 -0.15609923 1.4950001 2502438
0.10657616 -0.15495066 1.4840001 2568231
0.1128849 -0.15401092 1.475 2831405
0.11951502 -0.15359327 1.4710001 4212545
0.12576354 -0.15275796 1.4630001 4607303
0.13130188 -0.15119176 1.4480001 5002061
0.12248515 -0.13406782 1.284 5462610
0.12853961 -0.13406782 1.284 5857368
0.13459408 -0.13406782 1.284 5988954
0.096832804 -0.092302151 0.88400006 6646884
0.1008869 -0.092197731 0.88300002 7896953
0.10481258 -0.091988906 0.88100004 8686216
0.10871942 -0.091780081 0.87900007 9147280
0.11273578 -0.091675662 0.87800002 9476245
0.11660959 -0.091466837 0.87600005 9607831
0.12060238 -0.091362417 0.87500006 9805212
0.12458574 -0.091258004 0.87400001 9871005
0.12855966 -0.091153592 0.87300003 10002591
0.13252416 -0.091049172 0.87200004 10002591
0.13647923 -0.09094476 0.87100005 10002591
0.14042488 -0.090840347 0.87000006 10068384
0.1445272 -0.090840347 0.87000006 10134177
0.14845867 -0.090735927 0.86900002 10134177
0.1525563 -0.090735927 0.86900002 10265763
0.15665391 -0.090735927 0.86900002 10199970
0.16075151 -0.090735927 0.86900002 10265763
0.16484913 -0.090735927 0.86900002 10332326
0.16894674 -0.090735927 0.86900002 10463912
0.17284523 -0.090631515 0.86800003 10529705
0.17612274 -0.090213858 0.86400002 10792877
0.18019678 -0.090213858 0.86400002 10792877
0.18427081 -0.090213858 0.86400002 10792877
0.18812686 -0.090109445 0.86300004 10792877
0.19219618 -0.090109445 0.86300004 10858672
0.19558322 -0.0897962 0.86000001 10990258
0.19940627 -0.089691788 0.85900003 10990258
0.20345673 -0.089691788 0.85900003 11056051
0.20750719 -0.089691788 0.85900003 11121844
0.21131137 -0.089587376 0.85800004 11253430
0.21510611 -0.089482963 0.85700005 11253430
0.21889143 -0.089378551 0.85600007 11121844
0.22292775 -0.089378551 0.85600007 11319223
0.22802463 -0.0897962 0.86000001 11121844
0.2315401 -0.089587376 0.85800004 11186867
0.23558584 -0.089587376 0.85800004 11384246
0.23963159 -0.089587376 0.85800004 11121074
0.24396132 -0.089691788 0.85900003 11252660
0.24801178 -0.089691788 0.85900003 11121074
0.25235566 -0.0897962 0.86000001 11252147
0.25670901 -0.08990062 0.86100006 11186354
0.26107177 -0.090005033 0.86200005 11317170
0.26544395 -0.090109445 0.86300004 11120561
0.27013791 -0.090318277 0.86500007 11120561
0.27421662 -0.090318277 0.86500007 11120561
0.27829537 -0.090318277 0.86500007 11186354
0.28204769 -0.090213858 0.86400002 11120561
0.2854594 -0.090005033 0.86200005 11252147
0.28885224 -0.0897962 0.86000001 11317940
0.29222625 -0.089587376 0.85800004 11382963
0.29592672 -0.089482963 0.85700005 11382961
0.29926768 -0.089274131 0.85500002 11448754
0.30329925 -0.089274131 0.85500002 11448754
0.30697143 -0.089169718 0.85400003 11317168
0.31136248 -0.089274131 0.85500002 11251375
0.31539407 -0.089274131 0.85500002 11185582
0.31942567 -0.089274131 0.85500002 11185582
0.32383561 -0.089378551 0.85600007 11185582
0.32787192 -0.089378551 0.85600007 11382191
0.33229598 -0.089482963 0.85700005 11119019
0.33633697 -0.089482963 0.85700005 11447727
0.34037802 -0.089482963 0.85700005 11513518
0.34441903 -0.089482963 0.85700005 11381932
0.34846008 -0.089482963 0.85700005 11381932
0.35208979 -0.089378551 0.85600007 11578541
0.3561261 -0.089378551 0.85600007 11447725
0.36016244 -0.089378551 0.85600007 11513518
0.36377323 -0.089274131 0.85500002 11381932
0.36780483 -0.089274131 0.85500002 11447725
0.37183642 -0.089274131 0.85500002 11447725
0.37586805 -0.089274131 0.85500002 11513518
0.37989965 -0.089274131 0.85500002 11447725
0.38348222 -0.089169718 0.85400003 11710127
0.38750911 -0.089169718 0.85400003 11512748
0.39107752 -0.089065306 0.85300004 11710127
0.39463648 -0.088960893 0.85200006 11644334
0.398186 -0.088856474 0.85100001 11710127
0.40172613 -0.088752061 0.85000002 11644334
0.40573415 -0.088752061 0.85000002 11644334
0.40926015 -0.088647649 0.84900004 11710127
0.41326344 -0.088647649 0.84900004 11907506
0.41775823 -0.088752061 0.85000002 11841200
0.42176622 -0.088752061 0.85000002 11841200
0.42577425 -0.088752061 0.85000002 11775407
0.4302879 -0.088856474 0.85100001 11709614
0.43430063 -0.088856474 0.85100001 11709614
0.43831339 -0.088856474 0.85100001 11972786
0.44180635 -0.088752061 0.85000002 11775407
0.44581437 -0.088752061 0.85000002 11644334
0.4498224 -0.088752061 0.85000002 11644334
0.45329651 -0.088647649 0.84900004 11709614
0.45729983 -0.088647649 0.84900004 11775407
0.46130314 -0.088647649 0.84900004 12038579
0.4653064 -0.088647649 0.84900004 11973039
0.46986249 -0.088752061 0.85000002 11775660
0.47387052 -0.088752061 0.85000002 11775407
0.47844073 -0.088856474 0.85100001 11841202
0.48302042 -0.088960893 0.85200006 11775409
0.48760951 -0.089065306 0.85300004 11775409
0.49278438 -0.089274131 0.85500002 11709616
0.49797815 -0.089482963 0.85700005 11775409
0.50260496 -0.089587376 0.85800004 11709616
0.50783169 -0.0897962 0.86000001 11709616
0.51307732 -0.090005033 0.86200005 11709616
0.51774186 -0.090109445 0.86300004 11775407
0.52181119 -0.090109445 0.86300004 11972786
0.52588052 -0.090109445 0.86300004 11775409
0.52994984 -0.090109445 0.86300004 11775409
0.53340036 -0.090005033 0.86200005 11709614
0.53746492 -0.090005033 0.86200005 11710380
0.5409013 -0.08990062 0.86100006 11447978
0.54432827 -0.0897962 0.86000001 11316392
0.54774576 -0.089691788 0.85900003 11184806
0.5511539 -0.089587376 0.85800004 11053477
0.55519962 -0.089587376 0.85800004 10987682
-0.57729238 -0.077366322 0.77600002 7174245
-0.57363325 -0.077366322 0.77600002 6911843
-0.56997418 -0.077366322 0.77600002 7043429
-0.56631511 -0.077366322 0.77600002 7173991
-0.56265604 -0.077366322 0.77600002 7173991
-0.55899698 -0.077366322 0.77600002 7239784
-0.55533785 -0.077366322 0.77600002 7108968
-0.55167878 -0.077366322 0.77600002 7043688
-0.54801971 -0.077366322 0.77600002 6846825
-0.54436058 -0.077366322 0.77600002 6977897
-0.54070151 -0.077366322 0.77600002 6845798
-0.53704244 -0.077366322 0.77600002 6780003
-0.53338331 -0.077366322 0.77600002 6845798
-0.52972424 -0.077366322 0.77600002 7108968
-0.52606511 -0.077366322 0.77600002 7043175
-0.52240604 -0.077366322 0.77600002 7239273
-0.51874697 -0.077366322 0.77600002 6844515
-0.51508784 -0.077366322 0.77600002 6845026
-0.51142883 -0.077366322 0.77600002 7305579
-0.5077697 -0.077366322 0.77600002 7107689
-0.50411063 -0.077366322 0.77600002 6976616
-0.50045156 -0.077366322 0.77600002 6845030
-0.49679247 -0.077366322 0.77600002 6911593
-0.49313337 -0.077366322 0.77600002 6845800
-0.48947427 -0.077366322 0.77600002 6845800
-0.48581517 -0.077366322 0.77600002 7239786
-0.4821561 -0.077366322 0.77600002 6910310
-0.478497 -0.077366322 0.77600002 7107689
-0.4748379 -0.077366322 0.77600002 6910310
-0.47117883 -0.077366322 0.77600002 6976362
-0.46751973 -0.077366322 0.77600002 6910823
-0.46386063 -0.077366322 0.77600002 6780005
-0.46020153 -0.077366322 0.77600002 6780005
-0.45654249 -0.077366322 0.77600002 6845798
-0.45288339 -0.077366322 0.77600002 6845798
-0.44922432 -0.077366322 0.77600002 7043177
-0.44556522 -0.077366322 0.77600002 6976614
-0.44190612 -0.077366322 0.77600002 7043179
-0.43824705 -0.077366322 0.77600002 6911339
-0.43458796 -0.077366322 0.77600002 7240558
-0.43092886 -0.077366322 0.77600002 7240558
-0.71813887 -0.13230039 1.327 7306864
-0.71617329 -0.13309799 1.335 7438450
-0.71041012 -0.1331977 1.3360001 7503989
-0.70885366 -0.13409497 1.345 7700855
-0.70355624 -0.13429438 1.3470001 7635062
-0.69720477 -0.13429438 1.3470001 8095613
-0.69085324 -0.13429438 1.3470001 7371120
-0.68450171 -0.13429438 1.3470001 8093560
-0.6776467 -0.13419467 1.3460001 7896951
-0.6708011 -0.13409497 1.345 7896951
-0.66495305 -0.13419467 1.3460001 7765365
-0.65958482 -0.13439408 1.348 7962744
-0.65468234 -0.13469318 1.3510001 7700085
-0.65023142 -0.13509196 1.355 7765878
-0.64669311 -0.13569015 1.3610001 7502706
-0.64450961 -0.13658746 1.3700001 6910310
-0.64270687 -0.13758445 1.3800001 5657676
-0.6421929 -0.13888052 1.393 5395020
-0.64155638 -0.14017661 1.406 4869187
-0.64034569 -0.14137299 1.4180001 4474429
-0.63902175 -0.14256938 1.4300001 4079417
-0.63714254 -0.14366607 1.4410001 4013624
-0.63515955 -0.14476275 1.452 3947831
-0.63307285 -0.14585945 1.4630001 3026729
-0.63088244 -0.14695613 1.4740001 2237213
-0.62858826 -0.14805281 1.485 1974041
-0.62619036 -0.14914951 1.4960001 1580053
-0.6232748 -0.1501465 1.506 1448467
-0.61985588 -0.15104379 1.5150001 1251858
-0.61635202 -0.15194108 1.524 1382674
-0.61276335 -0.15283836 1.5330001 1382674
-0.60908973 -0.15373565 1.5420001 1120785
-0.6053313 -0.15463296 1.5510001 1186065
-0.60110235 -0.15543053 1.559 1251858
-0.59641719 -0.15612844 1.5660001 1448467
-0.59128982 -0.15672661 1.572 1382674
-0.58536303 -0.15712541 1.5760001 1382674
-0.57903183 -0.15742452 1.5790001 1382674
-0.57231027 -0.15762392 1.5810001 1382674
-0.5648554 -0.15762392 1.5810001 1448467
-0.55740047 -0.15762392 1.5810001 1382674
-0.54924989 -0.15742452 1.5790001 1448467
-0.54111809 -0.15722512 1.577 1382674
-0.53300518 -0.15702571 1.575 1448467
-0.52491117 -0.15682632 1.5730001 1316881
-0.51749396 -0.15682632 1.5730001 1514260
-0.51040101 -0.15692602 1.5740001 1514260
-0.50361824 -0.15712541 1.5760001 1580053
-0.49681658 -0.15732482 1.5780001 1514260
-0.49030617 -0.15762392 1.5810001 1382674
-0.48376748 -0.15792301 1.5840001 1448467
-0.4765991 -0.1580227 1.585 1448467
-0.4694213 -0.15812241 1.5860001 1580053
-0.4616515 -0.1580227 1.585 1580053
