# .PCD v0.7 - Point Cloud Data file format
VERSION 0.7
FIELDS x y z rgb
SIZE 4 4 4 4
TYPE F F F U
COUNT 1 1 1 1
WIDTH 1151
HEIGHT 1
VIEWPOINT 0 0 0 1 0 0 0
POINTS 1151
DATA ascii
0.55284703 -0.24178985 0.86700004 10726565
0.55693519 -0.24178985 0.86700004 10923944
0.56167048 -0.24206872 0.86800003 10726563
0.56576335 -0.24206872 0.86800003 10660770
-0.58993924 -0.21741341 0.79300004 7767152
-0.5862 -0.21741341 0.79300004 7701872
-0.58246076 -0.21741341 0.79300004 7899251
-0.57872152 -0.21741341 0.79300004 8030324
-0.57498229 -0.21741341 0.79300004 7504239
-0.57124305 -0.21741341 0.79300004 7767413
-0.56750381 -0.21741341 0.79300004 7701620
-0.56376451 -0.21741341 0.79300004 7701618
-0.56002527 -0.21741341 0.79300004 7635312
-0.55628604 -0.21741341 0.79300004 7503728
-0.5525468 -0.21741341 0.79300004 7570036
-0.5488075 -0.21741341 0.79300004 7635827
-0.54506826 -0.21741341 0.79300004 7635827
-0.54132903 -0.21741341 0.79300004 7701107
-0.53758979 -0.21741341 0.79300004 7766900
-0.53385049 -0.21741341 0.79300004 7701620
-0.53011125 -0.21741341 0.79300004 7767411
-0.52637202 -0.21741341 0.79300004 7504239
-0.52263284 -0.21741341 0.79300004 7503728
-0.51889354 -0.21741341 0.79300004 7701107
-0.5151543 -0.21741341 0.79300004 7766900
-0.51141506 -0.21741341 0.79300004 7635314
-0.50767583 -0.21741341 0.79300004 7503730
-0.50393653 -0.21741341 0.79300004 7765878
-0.50019729 -0.21741341 0.79300004 7635062
-0.49645805 -0.21741341 0.79300004 7503730
-0.49271879 -0.21741341 0.79300004 7831925
-0.48897955 -0.21741341 0.79300004 7502960
-0.48524031 -0.21741341 0.79300004 7634546
-0.48150104 -0.21741341 0.79300004 7502960
-0.47776181 -0.21741341 0.79300004 7700339
-0.47402254 -0.21741341 0.79300004 7634546
-0.4702833 -0.21741341 0.79300004 7831671
-0.46654409 -0.21741341 0.79300004 7635062
-0.46280482 -0.21741341 0.79300004 7503989
-0.45906559 -0.21741341 0.79300004 7635575
-0.45532632 -0.21741341 0.79300004 7438196
-0.45158708 -0.21741341 0.79300004 7569782
-0.44784781 -0.21741341 0.79300004 7503989
-0.44410858 -0.21741341 0.79300004 7569784
-0.44036934 -0.21741341 0.79300004 7766650
-0.43663007 -0.21741341 0.79300004 7964029
-0.43289083 -0.21741341 0.79300004 7766650
-0.75082266 -0.38712198 1.4120001 7964029
-0.74205655 -0.38602531 1.4080001 8029569
-0.73228347 -0.38438031 1.4020001 8095362
-0.72308463 -0.38300949 1.3970001 8621189
-0.71444577 -0.3819128 1.393 8621189
-0.70533651 -0.38054198 1.388 8688265
-0.6972813 -0.3797195 1.3850001 8095362
-0.6892544 -0.37889701 1.3820001 8291458
-0.68125576 -0.3780745 1.3790001 8488320
-0.67426395 -0.37780032 1.378 8619906
-0.66728169 -0.37752619 1.3770001 8686469
-0.66078871 -0.37752619 1.3770001 8489090
-0.65477085 -0.37780032 1.378 8489088
-0.64921403 -0.37834868 1.3800001 8291458
-0.64456981 -0.37944534 1.3840001 8290688
-0.64034891 -0.38081616 1.3890001 7763570
-0.63790601 -0.38328367 1.3980001 6184536
-0.63628137 -0.38629946 1.409 5592401
-0.63499993 -0.38958949 1.4210001 5263436
-0.63404739 -0.39315361 1.434 5000268
-0.63253492 -0.39644361 1.4460001 4080187
-0.63134199 -0.40000778 1.4590001 4342332
-0.63002646 -0.40357193 1.4720001 4211003
-0.62943488 -0.40768442 1.4870001 3421489
-0.62912035 -0.41207105 1.503 3487282
-0.62906891 -0.41673186 1.5200001 3092267
-0.62885708 -0.42139268 1.5370001 2829352
-0.62808055 -0.42577934 1.5530001 2500385
-0.6255542 -0.42906931 1.5650001 2369053
-0.62212473 -0.43181098 1.575 1974041
-0.61743009 -0.43373013 1.582 1645076
-0.61189836 -0.43510097 1.5870001 1645078
-0.60555768 -0.43592346 1.59 1382676
-0.59918869 -0.43674597 1.5930001 1382676
-0.59242004 -0.43729427 1.595 2039836
-0.58563256 -0.43784264 1.5970001 4277048
-0.57846415 -0.43811679 1.598 1974293
-0.57092911 -0.43811679 1.598 2106146
-0.56339401 -0.43811679 1.598 4014915
-0.55481535 -0.43729427 1.595 4146501
-0.54660821 -0.43674597 1.5930001 3817534
-0.53808141 -0.43592346 1.59 4080708
-0.52958298 -0.43510097 1.5870001 5002071
-0.52144176 -0.43455264 1.585 5002841
-0.51364374 -0.43427849 1.5840001 5133909
-0.50585514 -0.43400431 1.5830001 4211775
-0.49807593 -0.43373013 1.582 3816247
-0.49030617 -0.43345597 1.5810001 4145207
-0.48254582 -0.43318179 1.58 3487277
-0.47479495 -0.43290767 1.5790001 3751224
-0.46705347 -0.43263349 1.5780001 4410186
-0.45903015 -0.43208516 1.5760001 4344911
-0.45102578 -0.43153682 1.5740001 4410706
-0.44304016 -0.43098846 1.572 4542542
-0.43535057 -0.43071434 1.5710001 5332058
-0.42821518 -0.43098846 1.572 5726816
-0.42187345 -0.43208516 1.5760001 6252390
-0.41601992 -0.43373013 1.582 6120804
-0.41088459 -0.43619764 1.5910001 3816768
-0.40617147 -0.43921345 1.6020001 4607054
-0.40135458 -0.44222927 1.613 3949383
-0.39643398 -0.44524509 1.6240001 3489086
-0.39117026 -0.44798675 1.6340001 4410956
-0.38510817 -0.4499059 1.641 5199702
-0.37875012 -0.4515509 1.6470001 5199187
-0.37211022 -0.45292175 1.6520001 2236962
-0.3654232 -0.45429257 1.6570001 3093811
-0.35868898 -0.45566338 1.6620001 3093813
-0.35254094 -0.45785671 1.6700001 4015430
-0.34693664 -0.46087256 1.6810001 3620157
-0.34143025 -0.46416253 1.6930001 3422006
-0.33600762 -0.46772668 1.7060001 2699053
-0.32969344 -0.47019416 1.715 1317400
-0.32273185 -0.47183916 1.7210001 1448216
-0.31479961 -0.47211334 1.7220001 1382423
-0.30596742 -0.47101668 1.7180001 1382423
-0.29647946 -0.46882334 1.71 1316630
-0.28672963 -0.46608168 1.7 1382423
-0.27674621 -0.46279171 1.6880001 1448216
-0.26703516 -0.45977587 1.677 2237215
-0.25758237 -0.45703423 1.6670001 4934728
-0.24882315 -0.45538926 1.6610001 1908767
-0.24041063 -0.45429257 1.6570001 1712411
-0.23245698 -0.45401841 1.6560001 1843997
-0.22464843 -0.45401841 1.6560001 1514779
-0.21683985 -0.45401841 1.6560001 1514779
-0.20903127 -0.45401841 1.6560001 1712158
-0.20134421 -0.45429257 1.6570001 1777951
-0.19364773 -0.45456675 1.6580001 4408901
-0.18627805 -0.45566338 1.6620001 5396568
-0.17919274 -0.45758253 1.669 5528154
-0.17245202 -0.46059838 1.6800001 5725533
-0.16580343 -0.46416253 1.6930001 2237215
-0.15912548 -0.46800086 1.7070001 1843227
-0.15213847 -0.47129086 1.7190001 1843227
-0.14478692 -0.47375831 1.728 1777434
-0.13719237 -0.47567752 1.7350001 1645848
-0.12930873 -0.47677416 1.7390001 1777434
-0.12138735 -0.47787079 1.743 1777434
-0.11342826 -0.47896749 1.7470001 1777434
-0.10555188 -0.48061249 1.7530001 1843227
-0.097618893 -0.48225746 1.7590001 1645848
-0.089730904 -0.48445079 1.7670001 1777434
-0.081721395 -0.48636994 1.774 1777434
-0.073645875 -0.48828912 1.7810001 1777434
-0.065431066 -0.48965997 1.7860001 1777434
-0.057137184 -0.4907566 1.7900001 1580055
-0.048805583 -0.49185327 1.794 1580055
-0.040391281 -0.4924016 1.7960001 1645848
-0.031975888 -0.49322411 1.7990001 1580055
-0.023545265 -0.49432075 1.8030001 1514262
-0.015076917 -0.49541742 1.807 1580055
-0.0065744761 -0.49678823 1.812 1580055
0.0019762053 -0.49843323 1.8180001 1514262
0.010577668 -0.49980408 1.8230001 1514262
0.019236803 -0.50144911 1.8290001 1448469
0.027922053 -0.50254571 1.8330001 1448469
0.03662508 -0.50336826 1.8360001 1448469
0.045331735 -0.50391656 1.8380001 1382676
0.054027874 -0.50419074 1.8390001 1448469
0.062699348 -0.50419074 1.8390001 1514262
0.071526058 -0.50528741 1.8430001 1448469
0.080346964 -0.50610989 1.8460001 1448469
0.088906728 -0.50528741 1.8430001 1580055
0.097332276 -0.50391656 1.8380001 1448469
0.090889275 -0.43208516 1.5760001 1448986
0.098320618 -0.43208516 1.5760001 1777434
0.10575196 -0.43208516 1.5760001 1908767
0.11318331 -0.43208516 1.5760001 1908767
0.12061465 -0.43208516 1.5760001 2106399
0.12804601 -0.43208516 1.5760001 4276796
0.13547733 -0.43208516 1.5760001 4343359
0.14290868 -0.43208516 1.5760001 4343361
0.15034002 -0.43208516 1.5760001 4606533
0.15777136 -0.43208516 1.5760001 4935496
0.16520272 -0.43208516 1.5760001 4935496
0.097818665 -0.24482998 0.89300007 6580323
0.10168668 -0.24400748 0.89000005 6514277
0.10564537 -0.24345915 0.88800007 8092539
0.10946152 -0.24263665 0.88500005 9079434
0.11324938 -0.24181415 0.88200003 9605780
0.11687582 -0.24071749 0.87800002 9803159
0.12032671 -0.23934665 0.87300003 9343378
0.12373046 -0.23797582 0.86800003 8751243
0.12708706 -0.236605 0.86300004 7962495
0.13054845 -0.23550834 0.85900003 7896702
0.13397215 -0.23441167 0.85500002 8422274
0.13768093 -0.23386334 0.85300004 9211020
0.14137085 -0.23331501 0.85100001 10855847
0.14521274 -0.23304084 0.85000002 10988205
0.14922076 -0.23304084 0.85000002 11382963
0.15322879 -0.23304084 0.85000002 11382963
0.1574218 -0.23331501 0.85100001 11317170
0.16181393 -0.23386334 0.85300004 11382963
0.16622493 -0.23441167 0.85500002 11382963
0.1706548 -0.23496 0.85700005 10987951
0.17510352 -0.23550834 0.85900003 10987435
0.17977966 -0.23633084 0.86200005 10987435
0.18427081 -0.23687916 0.86400002 10987435
0.18878084 -0.2374275 0.86600006 11119021
0.19330971 -0.23797582 0.86800003 10987435
0.19785747 -0.23852417 0.87000006 11053228
0.20242406 -0.23907249 0.87200004 10988203
0.20677269 -0.23934665 0.87300003 11185582
0.21113071 -0.23962082 0.87400001 11382961
0.2169759 -0.24153998 0.88100004 11317168
0.22012608 -0.24044332 0.87700003 11842742
0.35900623 -0.37122038 1.3540001 12566208
0.42718878 -0.43400431 1.5830001 12697794
0.43300566 -0.43235931 1.577 12369086
0.24493812 -0.24044332 0.87700003 12566208
0.2573441 -0.24044332 0.87700003 11447984
0.26147944 -0.24044332 0.87700003 11447984
0.26561478 -0.24044332 0.87700003 11382191
0.26975012 -0.24044332 0.87700003 11316398
0.27388546 -0.24044332 0.87700003 11513520
0.27802077 -0.24044332 0.87700003 11316398
0.28215611 -0.24044332 0.87700003 11447984
0.28629145 -0.24044332 0.87700003 11316398
0.29042679 -0.24044332 0.87700003 11382191
0.29187512 -0.23824999 0.86900002 11316398
0.29461041 -0.23715334 0.86500007 11316398
0.29868916 -0.23715334 0.86500007 11513520
0.3027679 -0.23715334 0.86500007 11316398
0.30649188 -0.23687916 0.86400002 11316398
0.31020647 -0.236605 0.86300004 11447984
0.31391165 -0.23633084 0.86200005 11382191
0.31760737 -0.23605667 0.86100006 11382191
0.32166725 -0.23605667 0.86100006 11447727
0.32534882 -0.2357825 0.86000001 11316141
0.32902098 -0.23550834 0.85900003 11381934
0.33307144 -0.23550834 0.85900003 11513520
0.33712187 -0.23550834 0.85900003 11447727
0.34117234 -0.23550834 0.85900003 11513520
0.34562469 -0.2357825 0.86000001 11710129
0.35008651 -0.23605667 0.86100006 11578543
0.35455769 -0.23633084 0.86200005 11513520
0.35903835 -0.236605 0.86300004 11579313
0.36310768 -0.236605 0.86300004 11644336
0.36717698 -0.236605 0.86300004 11579313
0.37081611 -0.23633084 0.86200005 11382193
0.37444583 -0.23605667 0.86100006 11513779
0.37806609 -0.2357825 0.86000001 11513522
0.38123262 -0.23523417 0.85800004 11645108
0.38527837 -0.23523417 0.85800004 11776694
0.38887039 -0.23496 0.85700005 11907510
0.3929114 -0.23496 0.85700005 11973301
0.39741561 -0.23523417 0.85800004 12104887
0.40239713 -0.2357825 0.86000001 12104887
0.40834281 -0.23687916 0.86400002 12433852
0.41289419 -0.23715334 0.86500007 12565440
0.77113259 -0.43016601 1.5690001 12960196
0.78250039 -0.43235931 1.577 13026759
0.79895288 -0.43729427 1.595 13289931
0.80799067 -0.43811679 1.598 13420747
0.82164991 -0.44140679 1.6100001 13354441
0.83542228 -0.44469678 1.6220001 13091782
0.84878802 -0.4477126 1.6330001 12894403
0.85753709 -0.44826093 1.6350001 12631231
0.86842185 -0.4499059 1.641 12433852
0.85159945 -0.43729427 1.595 12236473
0.85211813 -0.43373013 1.582 12104887
0.83567047 -0.42166686 1.5380001 11973301
0.47736382 -0.23879834 0.87100005 11842487
0.48147085 -0.23879834 0.87100005 11645108
0.48892286 -0.24044332 0.87700003 11776694
0.49193379 -0.239895 0.87500006 11776694
0.49549276 -0.23962082 0.87400001 11645108
0.49904233 -0.23934665 0.87300003 11776694
0.50258243 -0.23907249 0.87200004 11579572
0.5066942 -0.23907249 0.87200004 11382193
0.51022017 -0.23879834 0.87100005 11317170
0.51373672 -0.23852417 0.87000006 11579570
0.51724386 -0.23824999 0.86900002 11711154
0.52074152 -0.23797582 0.86800003 11513775
0.52422976 -0.23770167 0.86700004 11317168
0.52831799 -0.23770167 0.86700004 11382961
0.5317921 -0.2374275 0.86600006 11317168
0.53587556 -0.2374275 0.86600006 11382959
0.53995895 -0.2374275 0.86600006 11054764
0.54404247 -0.2374275 0.86600006 10857385
0.54812592 -0.2374275 0.86600006 10989224
0.55284703 -0.23770167 0.86700004 10791845
0.55693519 -0.23770167 0.86700004 10857638
0.56102341 -0.23770167 0.86700004 10726052
0.56576335 -0.23797582 0.86800003 10660772
-0.58993924 -0.21367416 0.79300004 7767665
-0.5862 -0.21367416 0.79300004 7701872
-0.58246076 -0.21367416 0.79300004 7635825
-0.57872152 -0.21367416 0.79300004 7504753
-0.57498229 -0.21367416 0.79300004 7636339
-0.57124305 -0.21367416 0.79300004 7570032
-0.56750381 -0.21367416 0.79300004 7504753
-0.56376451 -0.21367416 0.79300004 7570032
-0.56002527 -0.21367416 0.79300004 7635312
-0.55628604 -0.21367416 0.79300004 7701105
-0.5525468 -0.21367416 0.79300004 7570032
-0.5488075 -0.21367416 0.79300004 7635312
-0.54506826 -0.21367416 0.79300004 7504239
-0.54132903 -0.21367416 0.79300004 7438962
-0.53758979 -0.21367416 0.79300004 7438962
-0.53385049 -0.21367416 0.79300004 7504755
-0.53011125 -0.21367416 0.79300004 7373169
-0.52637202 -0.21367416 0.79300004 7504241
-0.52263284 -0.21367416 0.79300004 7635827
-0.51889354 -0.21367416 0.79300004 7570034
-0.5151543 -0.21367416 0.79300004 7635829
-0.51141506 -0.21367416 0.79300004 7570036
-0.50767583 -0.21367416 0.79300004 7570036
-0.50393653 -0.21367416 0.79300004 7701109
-0.50019729 -0.21367416 0.79300004 7503730
-0.49645805 -0.21367416 0.79300004 7700337
-0.49271879 -0.21367416 0.79300004 7700339
-0.48897955 -0.21367416 0.79300004 7634546
-0.48524031 -0.21367416 0.79300004 7502960
-0.48150104 -0.21367416 0.79300004 7766132
-0.47776181 -0.21367416 0.79300004 7503730
-0.47402254 -0.21367416 0.79300004 7438450
-0.4702833 -0.21367416 0.79300004 7438450
-0.46654409 -0.21367416 0.79300004 7503476
-0.46280482 -0.21367416 0.79300004 7503476
-0.45906559 -0.21367416 0.79300004 7503476
-0.45532632 -0.21367416 0.79300004 7569269
-0.45158708 -0.21367416 0.79300004 7700857
-0.44784781 -0.21367416 0.79300004 7503991
-0.44410858 -0.21367416 0.79300004 7569784
-0.44036934 -0.21367416 0.79300004 7700857
-0.43663007 -0.21367416 0.79300004 7701117
-0.43289083 -0.21367416 0.79300004 8030082
-0.75082266 -0.38046393 1.4120001 7964029
-0.74258351 -0.37965557 1.409 8226431
-0.73228347 -0.37776944 1.4020001 8423810
-0.72308463 -0.3764222 1.3970001 8555396
-0.71393293 -0.37507492 1.3920001 8555396
-0.70533651 -0.37399712 1.388 8817802
-0.69677788 -0.37291932 1.3840001 7963776
-0.68825692 -0.37184155 1.3800001 8488067
-0.68076169 -0.3713026 1.378 8619653
-0.67328537 -0.37076372 1.376 8751492
-0.66631252 -0.37049428 1.3750001 8488320
-0.65982896 -0.37049428 1.3750001 8554111
-0.65382051 -0.37076372 1.376 8422525
-0.64827311 -0.3713026 1.378 8159353
-0.64317256 -0.37211096 1.381 8028537
-0.63942689 -0.37372768 1.3870001 7369839
-0.63699341 -0.37615272 1.396 5987159
-0.63537824 -0.37911668 1.4070001 5723987
-0.63455307 -0.38261953 1.4200001 5000011
-0.6336053 -0.38612241 1.4330001 4868678
-0.63253492 -0.38962525 1.4460001 4342591
-0.6309092 -0.39285865 1.4580001 4473918
-0.63002646 -0.39663097 1.4720001 4276539
-0.62943488 -0.40067273 1.4870001 3552816
-0.62912035 -0.40498391 1.503 3289901
-0.62948275 -0.40983403 1.521 2895145
-0.62926626 -0.4144147 1.5380001 2895145
-0.6284849 -0.41872588 1.554 2500385
-0.62635362 -0.42222872 1.567 2171420
-0.62291467 -0.42492324 1.577 2039834
-0.61821073 -0.4268094 1.5840001 1645078
-0.61266947 -0.42815667 1.5890001 1645848
-0.60631937 -0.42896503 1.5920001 1316883
-0.59994096 -0.42977333 1.595 1382676
-0.59316289 -0.43031228 1.5970001 1973784
-0.58636594 -0.43085116 1.5990001 4868156
-0.57918811 -0.4311206 1.6 2367511
-0.57164365 -0.4311206 1.6 2303778
-0.56374657 -0.43085116 1.5990001 3949635
-0.55516326 -0.4300428 1.5960001 4213577
-0.54660821 -0.42923445 1.5930001 3621438
-0.53808141 -0.42842609 1.59 4147265
-0.52958298 -0.42761776 1.5870001 5067864
-0.52144176 -0.42707884 1.585 4937561
-0.51331943 -0.42653996 1.5830001 5133394
-0.50521606 -0.42600104 1.5810001 4277566
-0.49744627 -0.4257316 1.58 3947831
-0.4893758 -0.42519268 1.5780001 3816245
-0.48162961 -0.42492324 1.577 3421487
-0.47359216 -0.42438433 1.575 3619638
-0.46586958 -0.42411491 1.5740001 4475468
-0.45786509 -0.423576 1.572 4475727
-0.44987956 -0.42303708 1.5700001 4279118
-0.44191286 -0.4224982 1.5680001 4476749
-0.43451923 -0.4224982 1.5680001 5133909
-0.427398 -0.42276767 1.5690001 5791839
-0.42080268 -0.423576 1.572 6252390
-0.41470507 -0.42492324 1.577 5857119
-0.40933505 -0.42707884 1.585 4080710
-0.40414312 -0.42950392 1.5940001 4147016
-0.39886636 -0.43192896 1.603 4146762
-0.39350468 -0.43435401 1.6120001 3883844
-0.38781875 -0.43650964 1.6200001 4673360
-0.38158798 -0.4381263 1.626 5199187
-0.37530068 -0.43974301 1.6320001 5725531
-0.36850625 -0.44082081 1.636 3421240
-0.36167413 -0.44189864 1.6400001 4080959
-0.35502011 -0.44324589 1.6450001 3488571
-0.34874111 -0.44513202 1.6520001 3290940
-0.3428089 -0.44755709 1.6610001 4739669
-0.3373968 -0.45079049 1.6730001 3883842
-0.33167461 -0.45375445 1.6840001 3093813
-0.32546416 -0.4561795 1.6930001 1777183
-0.31841877 -0.45752674 1.6980001 1448216
-0.31059495 -0.45779622 1.6990001 1448216
-0.30187124 -0.45671839 1.6950001 1514009
-0.29266509 -0.45483226 1.6880001 1448216
-0.28301904 -0.45213774 1.6780001 1448986
-0.27313933 -0.44890434 1.6660001 1383193
-0.26353201 -0.44594038 1.6550001 2040353
-0.25418296 -0.44324589 1.6450001 5133647
-0.24552746 -0.44162917 1.6390001 3817787
-0.23736379 -0.44082081 1.636 5659738
-0.22950915 -0.44055137 1.6350001 5132626
-0.22193527 -0.44082081 1.636 2829101
-0.21435195 -0.44109029 1.6370001 2566697
-0.2067592 -0.44135973 1.6380001 4541772
-0.19927852 -0.44189864 1.6400001 5068116
-0.19177899 -0.44243753 1.6420001 4739149
-0.18448475 -0.4435153 1.646 5133394
-0.1774749 -0.44540149 1.6530001 5462361
-0.17070697 -0.44809598 1.6630001 5923425
-0.16413854 -0.45159885 1.6760001 1975332
-0.15754074 -0.45537114 1.6900001 2106146
-0.15063389 -0.45860454 1.702 1712411
-0.14336252 -0.46102959 1.7110001 1712411
-0.13584812 -0.46291575 1.7180001 1778204
-0.12811899 -0.46426299 1.723 1646616
-0.12027307 -0.46534082 1.7270001 2105627
-0.11238942 -0.46641859 1.7310001 1843225
-0.10458848 -0.46803531 1.7370001 1777432
-0.096730947 -0.469652 1.743 1843225
-0.088918395 -0.4718076 1.751 1909018
-0.080984339 -0.47369379 1.7580001 1974811
-0.072984256 -0.47557992 1.7650001 1843225
-0.064844899 -0.47692716 1.7700001 1843225
-0.05665838 -0.47827443 1.7750001 1777432
-0.048370305 -0.47908279 1.7780001 1777434
-0.040076427 -0.48016056 1.7820001 1777434
-0.031744823 -0.48123839 1.7860001 1777434
-0.023388559 -0.48258564 1.7910001 1515032
-0.014993481 -0.48420233 1.7970001 1515032
-0.006549078 -0.48635793 1.8050001 1515032
0.0019718572 -0.488783 1.8140001 1515032
0.010577668 -0.49120805 1.8230001 1515032
0.019257838 -0.49336365 1.8310001 1383446
0.027998218 -0.49524978 1.8380001 1645848
0.036764719 -0.49659705 1.8430001 1580055
0.045529045 -0.49740541 1.8460001 1580055
0.054262906 -0.49767485 1.8470001 1448469
0.062972099 -0.49767485 1.8470001 1514262
0.071758918 -0.49821377 1.8490001 1580055
0.080521069 -0.49848321 1.8500001 1580055
0.089340888 -0.4990221 1.8520001 1580055
0.097967744 -0.49848321 1.8500001 1645848
0.10599903 -0.49524978 1.8380001 1777434
0.098320618 -0.4246538 1.5760001 1843227
0.10575196 -0.4246538 1.5760001 1843227
0.11318331 -0.4246538 1.5760001 1909020
0.12061465 -0.4246538 1.5760001 2106399
0.12804601 -0.4246538 1.5760001 2500387
0.13547733 -0.4246538 1.5760001 3949120
0.14290868 -0.4246538 1.5760001 4146752
0.15034002 -0.4246538 1.5760001 4475717
0.15777136 -0.4246538 1.5760001 4935496
0.16520272 -0.4246538 1.5760001 5198668
0.097709119 -0.24034972 0.89200002 6580070
0.10168668 -0.23981084 0.89000005 6711658
0.10564537 -0.23927194 0.88800007 8158332
0.10946152 -0.23846358 0.88500005 9080204
0.11324938 -0.23765524 0.88200003 9409169
0.11687582 -0.23657742 0.87800002 9540755
0.12032671 -0.23523018 0.87300003 9277583
0.12373046 -0.23388292 0.86800003 8817034
0.12723431 -0.23280512 0.86400002 8027518
0.13054845 -0.23145787 0.85900003 8027518
0.13412884 -0.23064953 0.85600007 8225667
0.13768093 -0.22984117 0.85300004 9080208
0.14153697 -0.22957173 0.85200006 10725033
0.14538358 -0.22930227 0.85100001 10922412
0.14939632 -0.22930227 0.85100001 10922412
0.15340906 -0.22930227 0.85100001 10922412
0.15760678 -0.22957173 0.85200006 10988205
0.16200364 -0.23011062 0.85400003 11119791
0.16622493 -0.23038007 0.85500002 11185584
0.1706548 -0.23091897 0.85700005 10856619
0.17530735 -0.23172732 0.86000001 10922412
0.17977966 -0.23226623 0.86200005 10922412
0.18427081 -0.23280512 0.86400002 10790826
0.18878084 -0.23334403 0.86600006 10856619
0.19330971 -0.23388292 0.86800003 10922412
0.19763003 -0.23415238 0.86900002 11119791
0.2019598 -0.23442183 0.87000006 10988205
0.20629898 -0.23469128 0.87100005 11119791
0.21161385 -0.23603854 0.87600005 11382193
0.2169759 -0.23738578 0.88100004 11579572
0.358872 -0.3713026 1.378 12171707
0.35794565 -0.363758 1.35 12434622
0.42368057 -0.42303708 1.5700001 12566208
0.43767348 -0.42950392 1.5940001 12566206
0.45831636 -0.44216806 1.641 12434877
0.47059825 -0.44647926 1.6570001 12434877
0.52893782 -0.49363312 1.8320001 12303293
0.54491222 -0.50036937 1.8570001 11974071
0.52206445 -0.4718076 1.751 11908278
0.26561478 -0.23630798 0.87700003 11447984
0.26975012 -0.23630798 0.87700003 11447984
0.27388546 -0.23630798 0.87700003 11382191
0.27802077 -0.23630798 0.87700003 11316398
0.28215611 -0.23630798 0.87700003 11316398
0.28629145 -0.23630798 0.87700003 11316400
0.29042679 -0.23630798 0.87700003 11250607
0.29086751 -0.23334403 0.86600006 11316400
0.29461041 -0.23307459 0.86500007 11382193
0.29868916 -0.23307459 0.86500007 11184555
0.30241787 -0.23280512 0.86400002 11316398
0.30613714 -0.23253568 0.86300004 11382193
0.30984703 -0.23226623 0.86200005 11316400
0.31391165 -0.23226623 0.86200005 11316400
0.31760737 -0.23199677 0.86100006 11316400
0.32129365 -0.23172732 0.86000001 11447727
0.32534882 -0.23172732 0.86000001 11447727
0.32902098 -0.23145787 0.85900003 11447727
0.33307144 -0.23145787 0.85900003 11447727
0.33712187 -0.23145787 0.85900003 11381934
0.34117234 -0.23145787 0.85900003 11447727
0.34562469 -0.23172732 0.86000001 11447727
0.35008651 -0.23199677 0.86100006 11447727
0.35414639 -0.23199677 0.86100006 11447727
0.35862231 -0.23226623 0.86200005 11579313
0.36268693 -0.23226623 0.86200005 11579313
0.36675152 -0.23226623 0.86200005 11447727
0.37038594 -0.23199677 0.86100006 11579315
0.37357602 -0.23145787 0.85900003 11645108
0.37718689 -0.23118843 0.85800004 11579315
0.3807883 -0.23091897 0.85700005 11776694
0.38438031 -0.23064953 0.85600007 11579315
0.38841662 -0.23064953 0.85600007 11645108
0.39245296 -0.23064953 0.85600007 11645108
0.39648923 -0.23064953 0.85600007 12104889
0.39958972 -0.23011062 0.85400003 12170682
0.40361661 -0.23011062 0.85400003 12433854
0.76324749 -0.4224982 1.5680001 12828612
0.77555591 -0.42519268 1.5780001 13025991
0.78795856 -0.4278872 1.5880001 13289163
0.8024593 -0.43165952 1.6020001 13354954
0.81355262 -0.43354565 1.6090001 13289161
0.82777399 -0.43704852 1.6220001 13091782
0.84057283 -0.43974301 1.6320001 12960196
0.85294616 -0.44216806 1.641 12697024
0.85648817 -0.44001248 1.6330001 12499645
0.86418825 -0.44001248 1.6330001 12368059
0.85159945 -0.42977333 1.595 12104887
0.85211813 -0.42627048 1.582 12105657
0.83567047 -0.4144147 1.5380001 11842485
0.47736382 -0.23469128 0.87100005 11645106
0.48147085 -0.23469128 0.87100005 11973303
0.48836538 -0.23603854 0.87600005 11907510
0.49137157 -0.23549962 0.87400001 11907510
0.49492586 -0.23523018 0.87300003 11973303
0.49904233 -0.23523018 0.87300003 11513522
0.50258243 -0.23496073 0.87200004 11447986
0.50611317 -0.23469128 0.87100005 11447986
0.51022017 -0.23469128 0.87100005 11513779
0.51373672 -0.23442183 0.87000006 11579570
0.51783907 -0.23442183 0.87000006 11579568
0.52134144 -0.23415238 0.86900002 11513775
0.52483445 -0.23388292 0.86800003 11317168
0.52831799 -0.23361348 0.86700004 11382959
0.53240615 -0.23361348 0.86700004 11185580
0.53649431 -0.23361348 0.86700004 11251373
0.53995895 -0.23334403 0.86600006 11185580
0.54467064 -0.23361348 0.86700004 11055017
0.54875886 -0.23361348 0.86700004 10791845
0.55284703 -0.23361348 0.86700004 10791845
0.55693519 -0.23361348 0.86700004 10791845
0.56102341 -0.23361348 0.86700004 10791845
-0.58993924 -0.20993491 0.79300004 8161140
-0.5862 -0.20993491 0.79300004 7897968
-0.58246076 -0.20993491 0.79300004 7832945
-0.57872152 -0.20993491 0.79300004 7899251
-0.57498229 -0.20993491 0.79300004 7242351
-0.57124305 -0.20993491 0.79300004 7439730
-0.56750381 -0.20993491 0.79300004 7176558
-0.56376451 -0.20993491 0.79300004 7701618
-0.56002527 -0.20993491 0.79300004 7832691
-0.55628604 -0.20993491 0.79300004 7766898
-0.5525468 -0.20993491 0.79300004 7700335
-0.5488075 -0.20993491 0.79300004 7767413
-0.54506826 -0.20993491 0.79300004 7570032
-0.54132903 -0.20993491 0.79300004 7504241
-0.53758979 -0.20993491 0.79300004 7569521
-0.53385049 -0.20993491 0.79300004 7570034
-0.53011125 -0.20993491 0.79300004 7438964
-0.52637202 -0.20993491 0.79300004 7307376
-0.52263284 -0.20993491 0.79300004 7898999
-0.51889354 -0.20993491 0.79300004 7570032
-0.5151543 -0.20993491 0.79300004 7766898
-0.51141506 -0.20993491 0.79300004 7766130
-0.50767583 -0.20993491 0.79300004 7635314
-0.50393653 -0.20993491 0.79300004 7306349
-0.50019729 -0.20993491 0.79300004 7569521
-0.49645805 -0.20993491 0.79300004 7635314
-0.49271879 -0.20993491 0.79300004 7635316
-0.48897955 -0.20993491 0.79300004 7503730
-0.48524031 -0.20993491 0.79300004 7569523
-0.48150104 -0.20993491 0.79300004 7503730
-0.47776181 -0.20993491 0.79300004 7831925
-0.47402254 -0.20993491 0.79300004 7700339
-0.4702833 -0.20993491 0.79300004 7503989
-0.46654409 -0.20993491 0.79300004 7503476
-0.46280482 -0.20993491 0.79300004 7634546
-0.45906559 -0.20993491 0.79300004 7635062
-0.45532632 -0.20993491 0.79300004 7569269
-0.45158708 -0.20993491 0.79300004 7569269
-0.44784781 -0.20993491 0.79300004 7503476
-0.44410858 -0.20993491 0.79300004 7700855
-0.44036934 -0.20993491 0.79300004 7832441
-0.43663007 -0.20993491 0.79300004 7766648
-0.43289083 -0.20993491 0.79300004 7964027
-0.75241786 -0.37460011 1.4150001 8029820
-0.74047542 -0.37195277 1.4050001 8161406
-0.7317611 -0.37089381 1.401 8161406
-0.72256702 -0.36957014 1.396 8490373
-0.71342003 -0.36824647 1.391 8490373
-0.70432019 -0.36692277 1.386 8884361
-0.69577098 -0.36586386 1.3820001 8094845
-0.68775815 -0.36506963 1.3790001 8422527
-0.67977363 -0.36427543 1.376 8554113
-0.67230678 -0.36374596 1.3740001 8619906
-0.66534328 -0.36348122 1.373 8619906
-0.65886915 -0.36348122 1.373 8488320
-0.65287018 -0.36374596 1.3740001 8422527
-0.64686179 -0.36401072 1.3750001 8422525
-0.64224112 -0.36506963 1.3790001 8093560
-0.63850486 -0.36665806 1.3850001 7172460
-0.6360808 -0.36904067 1.3940001 6052952
-0.63492662 -0.37221748 1.406 5789780
-0.63410616 -0.37565905 1.419 5066314
-0.63316309 -0.37910059 1.432 4934469
-0.63209748 -0.38254216 1.4450001 4473920
-0.6309092 -0.38598371 1.4580001 4408125
-0.62959844 -0.38942528 1.4710001 3882808
-0.62901157 -0.39339629 1.4860001 3618866
-0.62912035 -0.39789677 1.503 3421487
-0.62948275 -0.40266201 1.521 3158315
-0.62926626 -0.40716252 1.5380001 2501155
-0.6284849 -0.41139826 1.554 2435362
-0.62675333 -0.41510457 1.5680001 2566178
-0.62330973 -0.41775191 1.5780001 1974811
-0.61860096 -0.41960505 1.585 1843225
-0.61305499 -0.42092872 1.59 1777432
-0.60708112 -0.42198768 1.5940001 1448469
-0.60069329 -0.42278188 1.5970001 1448469
-0.59390575 -0.42331135 1.5990001 2105372
-0.58709937 -0.42384082 1.6010001 5130815
-0.57991213 -0.42410558 1.6020001 2433304
-0.57200092 -0.42384082 1.6010001 2302751
-0.56409913 -0.42357609 1.6 4475977
-0.55585891 -0.42304662 1.598 4476747
-0.54695135 -0.42198768 1.5940001 3884863
-0.53841984 -0.42119348 1.5910001 4212294
-0.52991664 -0.42039928 1.5880001 5068118
-0.52144176 -0.41960505 1.585 5396829
-0.51331943 -0.41907558 1.5830001 5002321
-0.50489646 -0.41828138 1.58 4803910
-0.49681658 -0.41775191 1.5780001 4013624
-0.48875555 -0.41722244 1.5760001 3750706
-0.4807134 -0.416693 1.5740001 3356464
-0.47269008 -0.4161635 1.572 3620408
-0.46468562 -0.41563404 1.5700001 4344395
-0.45670006 -0.41510457 1.5680001 4738899
-0.44901991 -0.41483983 1.567 4213325
-0.44106734 -0.41431037 1.5650001 4345165
-0.43368787 -0.41431037 1.5650001 5462872
-0.42658079 -0.4145751 1.5660001 5857117
-0.41999966 -0.4153693 1.5690001 6186082
-0.41391617 -0.416693 1.5740001 5593947
-0.40804377 -0.41828138 1.58 4212294
-0.4026219 -0.42039928 1.5880001 3949383
-0.39712459 -0.42251715 1.5960001 4279118
-0.39155179 -0.42463502 1.6040001 3949637
-0.38542482 -0.42622346 1.6100001 4674643
-0.3792412 -0.42781183 1.6160001 4344393
-0.3725411 -0.4288708 1.6200001 5659740
-0.36580327 -0.42992973 1.6240001 4475979
-0.35902771 -0.43098867 1.628 4410437
-0.35221446 -0.43204761 1.6320001 3357236
-0.34557456 -0.43337128 1.6370001 4212296
-0.3393003 -0.43522441 1.6440001 3950153
-0.33336338 -0.43760705 1.6530001 4279370
-0.32734156 -0.43998966 1.6620001 3159606
-0.3210426 -0.44210753 1.6700001 2566697
-0.31391814 -0.44316646 1.674 2237985
-0.30620751 -0.44343123 1.6750001 1645848
-0.29777503 -0.442637 1.6720001 1777434
-0.28885075 -0.44104862 1.6660001 1645848
-0.27947706 -0.43866599 1.6570001 1777434
-0.26986033 -0.43575388 1.646 1645848
-0.26034734 -0.43284184 1.6350001 1975330
-0.25124711 -0.4304592 1.626 3619638
-0.24268122 -0.4288708 1.6200001 5462612
-0.23460712 -0.4280766 1.6170001 5462359
-0.22698244 -0.4280766 1.6170001 5791839
-0.21949343 -0.4283413 1.618 2567471
-0.21225686 -0.42913553 1.6210001 2435885
-0.20486578 -0.42966497 1.623 2371375
-0.19745585 -0.43019447 1.6250001 4345163
-0.19014384 -0.43098867 1.628 5199702
-0.18291563 -0.43204761 1.6320001 5068116
-0.17597178 -0.43390074 1.6390001 5331288
-0.16926987 -0.43654808 1.649 5660255
-0.16266952 -0.43972495 1.6610001 5987935
-0.15595601 -0.44290176 1.6730001 2435111
-0.14912932 -0.44607857 1.6850001 2237732
-0.14193812 -0.4484612 1.6940001 2106399
-0.13442479 -0.45004958 1.7 1909790
-0.1267062 -0.45110855 1.7040001 1975583
-0.11894985 -0.45216748 1.7080001 2040606
-0.11115581 -0.45322642 1.7120001 2237985
-0.10338423 -0.45455012 1.7170001 2106397
-0.095676512 -0.45640323 1.7240001 2106397
-0.087851986 -0.45799166 1.7300001 2106397
-0.080016948 -0.4598448 1.7370001 2106397
-0.07207454 -0.4614332 1.743 2040604
-0.064075552 -0.46302161 1.7490001 1843225
-0.05595614 -0.46408057 1.7530001 1909018
-0.047799002 -0.46513951 1.7570001 1843225
-0.039604142 -0.46619841 1.761 1909018
-0.031389337 -0.46752208 1.766 1843227
-0.023140438 -0.46911052 1.7720001 1909020
-0.014859984 -0.47149315 1.7810001 1909020
-0.0065019103 -0.4744052 1.7920001 1777434
0.001960987 -0.47758207 1.8040001 1777434
0.010537053 -0.48075888 1.8160001 1645848
0.019226285 -0.48393568 1.8280001 1515032
0.027982987 -0.48631832 1.8370001 1515032
0.036784668 -0.48817146 1.8440001 1646618
0.045603037 -0.48949513 1.8490001 1515032
0.054380421 -0.4900246 1.8510001 1515032
0.063108474 -0.4900246 1.8510001 1383446
0.071875341 -0.49028933 1.8520001 1449239
0.080608115 -0.49028933 1.8520001 1646618
0.089340888 -0.49028933 1.8520001 1515032
0.098179564 -0.4908188 1.8540001 1449239
0.10617205 -0.48737723 1.8410001 1646618
0.098320618 -0.41722244 1.5760001 1909020
0.10575196 -0.41722244 1.5760001 1909020
0.11318331 -0.41722244 1.5760001 2040606
0.12061465 -0.41722244 1.5760001 2106399
0.12804601 -0.41722244 1.5760001 2369571
0.13547733 -0.41722244 1.5760001 3949120
0.14290868 -0.41722244 1.5760001 4146499
0.15034002 -0.41722244 1.5760001 4408901
0.15777136 -0.41722244 1.5760001 4738889
0.16520272 -0.41722244 1.5760001 5067854
0.097709119 -0.23614366 0.89200002 6711656
0.10168668 -0.2356142 0.89000005 6711656
0.10564537 -0.23508474 0.88800007 8026746
0.10958521 -0.23455526 0.88600004 9080457
0.11324938 -0.23349631 0.88200003 9540755
0.11687582 -0.23243737 0.87800002 9409169
0.12046455 -0.23137844 0.87400001 9211790
0.123873 -0.23005475 0.86900002 8619655
0.12738158 -0.22899583 0.86500007 8159104
0.13070042 -0.22767214 0.86000001 8093311
0.13428554 -0.22687794 0.85700005 8422276
0.13800375 -0.22634846 0.85500002 9211794
0.1417031 -0.22581901 0.85300004 10396838
0.14555442 -0.22555427 0.85200006 10396838
0.14957188 -0.22555427 0.85200006 10725033
0.15358934 -0.22555427 0.85200006 10725033
0.15779176 -0.22581901 0.85300004 10790826
0.16200364 -0.22608374 0.85400003 10856619
0.16641936 -0.22661321 0.85600007 11119791
0.17085393 -0.22714268 0.85800004 10988205
0.17530735 -0.22767214 0.86000001 10856619
0.17977966 -0.22820161 0.86200005 10725033
0.18427081 -0.22873108 0.86400002 10856619
0.18878084 -0.22926056 0.86600006 10790826
0.19308701 -0.2295253 0.86700004 10922412
0.19740261 -0.22979003 0.86800003 10856619
0.20172764 -0.23005475 0.86900002 10988205
0.20606212 -0.2303195 0.87000006 11185584
0.21137229 -0.23164319 0.87500006 11251377
0.34598142 -0.35818651 1.353 11776694
0.35522598 -0.36109862 1.3640001 12237243
0.35900623 -0.35845128 1.3540001 12566208
0.37294686 -0.36586386 1.3820001 12566208
0.44645989 -0.4304592 1.626 12500415
0.46418145 -0.43998966 1.6620001 12434620
0.50382698 -0.46963999 1.774 12500413
0.48418596 -0.44396067 1.677 12171705
0.54373842 -0.49055403 1.853 11974071
0.55575562 -0.49346614 1.8640001 11447984
0.56727082 -0.49584877 1.8730001 11382191
0.26975012 -0.23217264 0.87700003 11119019
0.27388546 -0.23217264 0.87700003 11316398
0.27802077 -0.23217264 0.87700003 11316400
0.28215611 -0.23217264 0.87700003 11250605
0.28629145 -0.23217264 0.87700003 11316398
0.29042679 -0.23217264 0.87700003 11513779
0.29153925 -0.22979003 0.86800003 11250607
0.2942698 -0.22873108 0.86400002 11250607
0.29834384 -0.22873108 0.86400002 11250605
0.30206785 -0.22846635 0.86300004 11316398
0.30578244 -0.22820161 0.86200005 11250605
0.30948758 -0.22793689 0.86100006 11250605
0.31354749 -0.22793689 0.86100006 11447984
0.31723848 -0.22767214 0.86000001 11382191
0.32129365 -0.22767214 0.86000001 11316398
0.32534882 -0.22767214 0.86000001 11382191
0.329404 -0.22767214 0.86000001 11447984
0.33307144 -0.22740741 0.85900003 11382191
0.33712187 -0.22740741 0.85900003 11184555
0.34156951 -0.22767214 0.86000001 11644336
0.34562469 -0.22767214 0.86000001 11644336
0.34967989 -0.22767214 0.86000001 11775922
0.35414639 -0.22793689 0.86100006 11512750
0.35820627 -0.22793689 0.86100006 11579313
0.36226618 -0.22793689 0.86100006 11513520
0.36590058 -0.22767214 0.86000001 11513520
0.36995575 -0.22767214 0.86000001 11447727
0.37314114 -0.22714268 0.85800004 11579313
0.37674728 -0.22687794 0.85700005 11710129
0.380344 -0.22661321 0.85600007 11973301
0.38438031 -0.22661321 0.85600007 11710129
0.38796285 -0.22634846 0.85500002 12039094
0.39199445 -0.22634846 0.85500002 12039094
0.39556283 -0.22608374 0.85400003 12170680
0.39958972 -0.22608374 0.85400003 12368059
0.75585383 -0.41510457 1.5680001 12434622
0.7681151 -0.41775191 1.5780001 12829380
0.78096217 -0.42066401 1.5890001 12960966
0.79391289 -0.42357609 1.6 13289161
0.80796927 -0.42701763 1.613 13420234
0.81860888 -0.42860606 1.6190001 13354441
0.83236706 -0.43178287 1.631 12894403
0.8446933 -0.43416551 1.6400001 12697024
0.85658461 -0.43628338 1.6480001 12368059
0.86855137 -0.43840128 1.6560001 12236473
0.86418825 -0.43231237 1.6330001 12170680
0.85159945 -0.42225239 1.595 12236475
0.85211813 -0.41881084 1.582 12104887
0.83567047 -0.40716252 1.5380001 12039094
0.47736382 -0.23058423 0.87100005 11841202
0.48147085 -0.23058423 0.87100005 11775922
0.48836538 -0.2319079 0.87600005 11907508
0.49137157 -0.23137844 0.87400001 11907508
0.49492586 -0.2311137 0.87300003 11775922
0.49847069 -0.23084897 0.87200004 11645106
0.50258243 -0.23084897 0.87200004 11447984
0.50611317 -0.23058423 0.87100005 11316398
0.51022017 -0.23058423 0.87100005 11382191
0.51373672 -0.2303195 0.87000006 11382191
0.51783907 -0.2303195 0.87000006 11711156
0.52134144 -0.23005475 0.86900002 11447984
0.52543908 -0.23005475 0.86900002 11447984
0.52892733 -0.22979003 0.86800003 11579570
0.5330202 -0.22979003 0.86800003 11579568
0.53649431 -0.2295253 0.86700004 11185580
0.54058248 -0.2295253 0.86700004 10988454
0.54467064 -0.2295253 0.86700004 10989222
0.54875886 -0.2295253 0.86700004 10989222
0.55284703 -0.2295253 0.86700004 10857636
0.55693519 -0.2295253 0.86700004 10660257
0.56102341 -0.2295253 0.86700004 10726050
-0.58993924 -0.20619565 0.79300004 7963759
-0.5862 -0.20619565 0.79300004 7897968
-0.58246076 -0.20619565 0.79300004 7832175
-0.57872152 -0.20619565 0.79300004 7701359
-0.57498229 -0.20619565 0.79300004 7570286
-0.57124305 -0.20619565 0.79300004 7635566
-0.56750381 -0.20619565 0.79300004 7636079
-0.56376451 -0.20619565 0.79300004 7307374
-0.56002527 -0.20619565 0.79300004 7635825
-0.55628604 -0.20619565 0.79300004 7767152
-0.5525468 -0.20619565 0.79300004 7700589
-0.5488075 -0.20619565 0.79300004 7767152
-0.54506826 -0.20619565 0.79300004 7504493
-0.54132903 -0.20619565 0.79300004 7701105
-0.53758979 -0.20619565 0.79300004 7635312
-0.53385049 -0.20619565 0.79300004 7635312
-0.53011125 -0.20619565 0.79300004 7438448
-0.52637202 -0.20619565 0.79300004 7504241
-0.52263284 -0.20619565 0.79300004 7438448
-0.51889354 -0.20619565 0.79300004 7504753
-0.5151543 -0.20619565 0.79300004 7570032
-0.51141506 -0.20619565 0.79300004 7635314
-0.50767583 -0.20619565 0.79300004 7437165
-0.50393653 -0.20619565 0.79300004 7634546
-0.50019729 -0.20619565 0.79300004 7503730
-0.49645805 -0.20619565 0.79300004 7372144
-0.49271879 -0.20619565 0.79300004 7569269
-0.48897955 -0.20619565 0.79300004 7438450
-0.48524031 -0.20619565 0.79300004 7504243
-0.48150104 -0.20619565 0.79300004 7438450
-0.47776181 -0.20619565 0.79300004 7635316
-0.47402254 -0.20619565 0.79300004 7372144
-0.4702833 -0.20619565 0.79300004 7371890
-0.46654409 -0.20619565 0.79300004 7569523
-0.46280482 -0.20619565 0.79300004 7306097
-0.45906559 -0.20619565 0.79300004 7700855
-0.45532632 -0.20619565 0.79300004 7503476
-0.45158708 -0.20619565 0.79300004 7503989
-0.44784781 -0.20619565 0.79300004 7635575
-0.44410858 -0.20619565 0.79300004 7569782
-0.44036934 -0.20619565 0.79300004 7635062
-0.43663007 -0.20619565 0.79300004 8029820
-0.76069945 -0.36870798 1.4180001 7766650
-0.7529496 -0.36818793 1.416 8029822
-0.74100244 -0.36558774 1.406 8227201
-0.73071647 -0.36376759 1.399 8095615
-0.72204947 -0.36272752 1.3950001 8227201
-0.7129072 -0.36142743 1.3900001 8490373
-0.70381206 -0.36012733 1.3850001 8884361
-0.6952675 -0.35908726 1.381 8093309
-0.68676072 -0.35804719 1.3770001 8423044
-0.67927969 -0.35752714 1.3750001 8357504
-0.67132819 -0.35674709 1.3720001 8620676
-0.66437411 -0.35648704 1.3710001 8489090
-0.65790945 -0.35648704 1.3710001 8488320
-0.6519199 -0.35674709 1.3720001 8225918
-0.64592087 -0.35700709 1.373 8225916
-0.64130968 -0.35804719 1.3770001 8027767
-0.63804382 -0.3598673 1.3840001 7237481
-0.63562447 -0.36220747 1.393 6052950
-0.63447505 -0.36532772 1.4050001 5592399
-0.63365936 -0.36870798 1.4180001 5197125
-0.63272101 -0.37208825 1.4310001 5000514
-0.63166004 -0.37546852 1.4440001 4474170
-0.63047647 -0.37884873 1.457 4342332
-0.62917042 -0.382229 1.47 3882808
-0.62858826 -0.38612929 1.485 3422257
-0.62870181 -0.39054963 1.5020001 3356464
-0.62906891 -0.39523 1.5200001 2895913
-0.62885708 -0.39965034 1.5370001 2764327
-0.6284849 -0.40407065 1.554 2435362
-0.62635362 -0.40745091 1.567 2500385
-0.62330973 -0.41031113 1.5780001 1909018
-0.61899126 -0.4123913 1.5860001 1777686
-0.61344063 -0.4136914 1.5910001 1777432
-0.60746193 -0.41473147 1.595 1382674
-0.60106939 -0.41551152 1.598 1382674
-0.59427714 -0.41603157 1.6 2104600
-0.58746606 -0.41655162 1.6020001 4803133
-0.58027411 -0.41681162 1.603 2367772
-0.57271546 -0.41681162 1.603 2434341
-0.56445169 -0.41629159 1.6010001 4344391
-0.55620676 -0.41577154 1.5990001 5002321
-0.54763758 -0.4149915 1.5960001 4147012
-0.53909665 -0.41421142 1.5930001 4081221
-0.53025037 -0.41317135 1.5890001 5199450
-0.52177078 -0.4123913 1.5860001 5462876
-0.51331943 -0.41161123 1.5830001 5134160
-0.50489646 -0.41083115 1.58 5263688
-0.49650174 -0.41005111 1.577 4079417
-0.48844543 -0.40953106 1.575 3683886
-0.48010257 -0.40875101 1.572 4012851
-0.47208869 -0.40823096 1.5700001 3686201
-0.46409369 -0.40771094 1.5680001 4016198
-0.45611754 -0.40719092 1.5660001 4477010
-0.44816029 -0.40667087 1.5640001 4279633
-0.44050369 -0.40641084 1.5630001 4344141
-0.43313363 -0.40641084 1.5630001 5987935
-0.426036 -0.40667087 1.5640001 6120291
-0.41946426 -0.40745091 1.567 5989988
-0.41339022 -0.40875101 1.572 5397079
-0.40752727 -0.41031113 1.5780001 4936017
-0.40186125 -0.41213128 1.585 3554625
-0.39612928 -0.41395143 1.5920001 4015946
-0.39033124 -0.41577154 1.5990001 3949635
-0.38398844 -0.41707164 1.6040001 4477262
-0.37759846 -0.41837174 1.6090001 3753539
-0.37093136 -0.41941181 1.613 5331288
-0.36400127 -0.42019188 1.6160001 4936528
-0.35704294 -0.42097196 1.6190001 4673356
-0.35005629 -0.42175201 1.6220001 3621440
-0.34325242 -0.42279208 1.626 3094844
-0.33661726 -0.42409217 1.631 3883590
-0.33013663 -0.4256523 1.6370001 5068118
-0.32379633 -0.42747244 1.6440001 3949635
-0.3171978 -0.42903256 1.6500001 2633262
-0.30998012 -0.42981264 1.6530001 2237732
-0.30236846 -0.43007264 1.654 2106399
-0.29421315 -0.42955258 1.6520001 2237985
-0.28538314 -0.42799246 1.646 1843227
-0.2764411 -0.42617235 1.6390001 1843227
-0.26707318 -0.42357215 1.6290001 1909020
-0.25795883 -0.42123199 1.6200001 2040606
-0.24908386 -0.41915181 1.6120001 2764329
-0.24058396 -0.41759169 1.6060001 5330256
-0.23272097 -0.41707164 1.6040001 5132877
-0.22501722 -0.41681162 1.603 5527382
-0.2177299 -0.41733167 1.605 6449771
-0.21055463 -0.41811171 1.608 2236966
-0.20335107 -0.41889179 1.6110001 3620672
-0.19611923 -0.41967186 1.6140001 3291194
-0.18897587 -0.4207119 1.618 5133911
-0.18179482 -0.42175201 1.6220001 5528669
-0.17489812 -0.42357215 1.6290001 5331290
-0.16803807 -0.4256523 1.6370001 5660253
-0.16129844 -0.42825249 1.6470001 5791839
-0.15465094 -0.43137273 1.659 2697513
-0.14771326 -0.43397292 1.669 2566950
-0.1405137 -0.43605307 1.677 2369571
-0.13300148 -0.43735319 1.682 2369571
-0.12536775 -0.43839327 1.6860001 2895140
-0.11769628 -0.43943334 1.6900001 5657674
-0.10992218 -0.44021341 1.6930001 2631973
-0.1022402 -0.44151351 1.6980001 2631973
-0.094511077 -0.44281361 1.7030001 3026472
-0.086785577 -0.44437373 1.7090001 4737342
-0.079003491 -0.44593382 1.715 5856080
-0.071123466 -0.44723392 1.72 2631968
-0.063196294 -0.44853401 1.725 2566178
-0.055190053 -0.44957411 1.7290001 2237983
-0.047146086 -0.45061418 1.733 2040604
-0.039064396 -0.45165429 1.7370001 1909788
-0.030980529 -0.45321438 1.743 2107167
-0.022853142 -0.45503455 1.7500001 2237985
-0.01469311 -0.45789474 1.761 2106399
-0.0064366008 -0.46127498 1.774 2040606
0.0019446816 -0.4651753 1.789 1909020
0.010473226 -0.46933562 1.8050001 1974813
0.019142143 -0.47323591 1.8200001 1843227
0.027906822 -0.47635615 1.8320001 1843227
0.036724821 -0.47869632 1.8410001 1646618
0.04555371 -0.48025647 1.8470001 1646618
0.054351043 -0.48103651 1.8500001 1646618
0.063108474 -0.48129651 1.8510001 1515032
0.071836531 -0.48129651 1.8510001 1515032
0.080564588 -0.48129651 1.8510001 1449239
0.089292645 -0.48129651 1.8510001 1646618
0.097914785 -0.48077649 1.8490001 1712411
0.10611437 -0.47843629 1.84 1646618
0.098320618 -0.40979111 1.5760001 1843997
0.10575196 -0.40979111 1.5760001 1843997
0.11318331 -0.40979111 1.5760001 1843997
0.12061465 -0.40979111 1.5760001 1909790
0.12804601 -0.40979111 1.5760001 2369318
0.13547733 -0.40979111 1.5760001 3949120
0.14290868 -0.40979111 1.5760001 4278085
0.15034002 -0.40979111 1.5760001 4606280
0.15777136 -0.40979111 1.5760001 4869705
0.16520272 -0.40979111 1.5760001 5132877
0.097709119 -0.2319376 0.89200002 6842472
0.10168668 -0.23141757 0.89000005 7039851
0.10576434 -0.23115754 0.88900006 8027516
0.10958521 -0.23037748 0.88600004 9014411
0.11337778 -0.22959742 0.88300002 9474962
0.11700894 -0.22855735 0.87900007 9474962
0.12060238 -0.22751728 0.87500006 9211790
0.12401556 -0.22621717 0.87000006 8619653
0.12752885 -0.22517709 0.86600006 8093309
0.13100439 -0.22413701 0.86200005 8027516
0.13459891 -0.22335695 0.85900003 8422274
0.13832657 -0.22283691 0.85700005 9540757
0.14203534 -0.22231686 0.85500002 10264482
0.14589611 -0.22205685 0.85400003 10199459
0.14992298 -0.22205685 0.85400003 10199459
0.15394987 -0.22205685 0.85400003 10199459
0.15797675 -0.22205685 0.85400003 10133666
0.16238303 -0.2225769 0.85600007 10461861
0.16661377 -0.22283691 0.85700005 11119537
0.17105305 -0.22335695 0.85900003 11119021
0.17530735 -0.22361696 0.86000001 10790826
0.17977966 -0.22413701 0.86200005 10725033
0.18427081 -0.22465704 0.86400002 10790826
0.18856286 -0.22491707 0.86500007 10922412
0.19308701 -0.2254371 0.86700004 10922412
0.19740261 -0.22569713 0.86800003 10988205
0.20149551 -0.22569713 0.86800003 10856619
0.20582527 -0.22595714 0.86900002 10988205
0.20992287 -0.22595714 0.86900002 11251377
0.34598142 -0.3518067 1.353 11579572
0.35470513 -0.3541469 1.3620001 12040123
0.36590001 -0.35882723 1.3800001 12303293
0.42125186 -0.40589082 1.5610001 12500672
0.46513104 -0.44047344 1.6940001 12369086
0.48233539 -0.44905409 1.7270001 12369086
0.47997046 -0.43943334 1.6900001 12237498
0.48331979 -0.43527302 1.674 11908535
0.53875005 -0.47739622 1.8360001 11711156
0.54323328 -0.47375596 1.8220001 11513520
0.55606472 -0.47739622 1.8360001 11317168
0.26975012 -0.2280373 0.87700003 11251375
0.27388546 -0.2280373 0.87700003 11119789
0.27802077 -0.2280373 0.87700003 11119791
0.28215611 -0.2280373 0.87700003 11250607
0.28629145 -0.2280373 0.87700003 11250607
0.29042679 -0.2280373 0.87700003 11250607
0.28918815 -0.223877 0.86100006 11382191
0.29392922 -0.22439703 0.86300004 11119019
0.29765323 -0.22413701 0.86200005 11382191
0.30171785 -0.22413701 0.86200005 11382191
0.3054277 -0.223877 0.86100006 11250605
0.30912811 -0.22361696 0.86000001 11250605
0.31318331 -0.22361696 0.86000001 11382191
0.31723848 -0.22361696 0.86000001 11447727
0.32129365 -0.22361696 0.86000001 11447727
0.32534882 -0.22361696 0.86000001 11381934
0.329404 -0.22361696 0.86000001 11513520
0.3334592 -0.22361696 0.86000001 11381934
0.33751434 -0.22361696 0.86000001 11644336
0.34156951 -0.22361696 0.86000001 11512750
0.34562469 -0.22361696 0.86000001 11578543
0.34967989 -0.22361696 0.86000001 11710129
0.35414639 -0.223877 0.86100006 11710129
0.35820627 -0.223877 0.86100006 11644336
0.3618454 -0.22361696 0.86000001 11579313
0.36590058 -0.22361696 0.86000001 11579313
0.36952555 -0.22335695 0.85900003 11513520
0.37314114 -0.22309694 0.85800004 11579313
0.37674728 -0.22283691 0.85700005 11775922
0.380344 -0.2225769 0.85600007 11579313
0.38438031 -0.2225769 0.85600007 11645106
0.38796285 -0.22231686 0.85500002 11907508
0.39199445 -0.22231686 0.85500002 11973301
0.39556283 -0.22205685 0.85400003 12170680
0.39958972 -0.22205685 0.85400003 12236473
0.76115638 -0.41057116 1.5790001 12697024
0.77395624 -0.41343138 1.59 13025989
0.78735143 -0.41655162 1.6020001 13025989
0.80085969 -0.41967186 1.6140001 13157575
0.8134793 -0.42227206 1.6240001 13157575
0.8221482 -0.42279208 1.626 12894403
0.8364498 -0.42617235 1.6390001 12894403
0.84726858 -0.42773247 1.6450001 12565438
0.85762411 -0.42903256 1.6500001 12433852
0.8711738 -0.43189278 1.6610001 12236473
0.86418825 -0.42461222 1.6330001 12039094
0.85159945 -0.41473147 1.595 12039094
0.85211813 -0.4113512 1.582 11907508
0.83567047 -0.39991036 1.5380001 11907508
0.47736382 -0.22647719 0.87100005 11775922
0.4825764 -0.22699723 0.87300003 11710129
0.48669288 -0.22699723 0.87300003 11907508
0.49080935 -0.22699723 0.87300003 11775922
0.49435893 -0.2267372 0.87200004 11710129
0.49789906 -0.22647719 0.87100005 11775409
0.50200611 -0.22647719 0.87100005 11907508
0.50611317 -0.22647719 0.87100005 11579313
0.50963444 -0.22621717 0.87000006 11447984
0.51373672 -0.22621717 0.87000006 11447984
