# .PCD v0.7 - Point Cloud Data file format
VERSION 0.7
FIELDS x y z rgb
SIZE 4 4 4 4
TYPE F F F U
COUNT 1 1 1 1
WIDTH 1157
HEIGHT 1
VIEWPOINT 0 0 0 1 0 0 0
POINTS 1157
DATA ascii
0.51018065 0.078066416 0.87800002 12499130
0.51432067 0.078066416 0.87800002 12499645
0.51846075 0.078066416 0.87800002 12499130
0.52260077 0.078066416 0.87800002 12301751
0.52674085 0.078066416 0.87800002 12235958
0.53027624 0.077977501 0.87700003 9205630
0.53258348 0.077710755 0.87400001 8351857
0.83550233 0.11914464 1.34 5327176
0.85375714 0.12083401 1.3590001 4998728
0.87598872 0.12305686 1.3840001 4998979
0.90100676 0.12563537 1.4130001 7628888
0.92758304 0.1283917 1.4440001 8415572
0.95251036 0.13088128 1.4720001 8743508
0.97444272 0.1329263 1.4950001 8150858
-0.59068316 0.074341618 0.79400003 7766380
-0.58693922 0.074341618 0.79400003 7766380
-0.58319521 0.074341618 0.79400003 7635564
-0.57945132 0.074341618 0.79400003 7307366
-0.57570738 0.074341618 0.79400003 7438952
-0.57196337 0.074341618 0.79400003 7306853
-0.56821942 0.074341618 0.79400003 7569771
-0.56447548 0.074341618 0.79400003 7503978
-0.56073147 0.074341618 0.79400003 7503208
-0.55698752 0.074341618 0.79400003 7502697
-0.55324358 0.074341618 0.79400003 7634796
-0.54949957 0.074341618 0.79400003 7240808
-0.54575562 0.074341618 0.79400003 7503208
-0.54201168 0.074341618 0.79400003 7371622
-0.53826767 0.074341618 0.79400003 7436904
-0.53452373 0.074341618 0.79400003 7699306
-0.53077972 0.074341618 0.79400003 7568488
-0.52703577 0.074341618 0.79400003 7437417
-0.52329189 0.074341618 0.79400003 7372140
-0.51954788 0.074341618 0.79400003 7503726
-0.51580393 0.074341618 0.79400003 7240554
-0.51205999 0.074341618 0.79400003 7372142
-0.50831598 0.074341618 0.79400003 7372142
-0.50457203 0.074341618 0.79400003 7306347
-0.50082809 0.074341618 0.79400003 7502956
-0.49708408 0.074341618 0.79400003 7634542
-0.49334013 0.074341618 0.79400003 7699822
-0.48959616 0.074341618 0.79400003 7372142
-0.48585218 0.074341618 0.79400003 7701107
-0.80757183 0.1264931 1.3510001 7635316
-0.8012014 0.1264931 1.3510001 7766902
-0.7948311 0.1264931 1.3510001 7831925
-0.78904432 0.12658674 1.3520001 7832695
-0.78324807 0.12668036 1.353 8030074
-0.77744246 0.126774 1.3540001 7831925
-0.77219683 0.12696125 1.3560001 7897718
-0.76636761 0.12705489 1.3570001 7831671
-0.76108897 0.12724213 1.3590001 8094843
-0.75523615 0.12733576 1.36 8291711
-0.74937391 0.1274294 1.3610001 8160123
-0.74404812 0.12761664 1.363 8291963
-0.73816234 0.12771028 1.3640001 8357756
-0.73280352 0.12789755 1.3660001 8028537
-0.72742587 0.12808479 1.368 8160123
-0.7230835 0.12845932 1.3720001 8093814
-0.7197479 0.12902108 1.378 7962226
-0.71739107 0.12977012 1.386 6578774
-0.71547163 0.13061279 1.3950001 5855823
-0.7144835 0.1316427 1.406 5592651
-0.71238488 0.13248537 1.4150001 5132098
-0.71020132 0.13332804 1.424 5461065
-0.70793289 0.1341707 1.4330001 4670781
-0.70606887 0.135107 1.4430001 4933953
-0.70459521 0.13613692 1.4540001 4539195
-0.70301771 0.13716683 1.465 4012851
-0.70228684 0.13838401 1.478 3684402
-0.70143342 0.13960119 1.4910001 3421741
-0.70045733 0.14081837 1.5040001 3158569
-0.6993587 0.14203556 1.5170001 3158310
-0.69813746 0.14325273 1.5300001 3157538
-0.69634199 0.14437628 1.5420001 2631964
-0.69443339 0.14549983 1.554 2566430
-0.69196945 0.14652975 1.5650001 2237465
-0.68852699 0.14737242 1.5740001 2369051
-0.6845668 0.14812145 1.582 2237210
-0.67967522 0.14868324 1.5880001 2434589
-0.67430377 0.14915137 1.5930001 4936268
-0.66846657 0.1495259 1.5970001 3685429
-0.66217774 0.14980678 1.6 2433565
-0.6554516 0.14999405 1.6020001 1973784
-0.64911085 0.15027492 1.605 2369053
-0.64274192 0.1505558 1.608 2961188
-0.63673973 0.15093033 1.6120001 2961440
-0.6310901 0.15139848 1.6170001 3092772
-0.62577879 0.15196025 1.623 2765347
-0.62079185 0.15261567 1.6300001 2764577
-0.61536264 0.15317743 1.636 2435612
-0.61024839 0.15383284 1.6430001 1975061
-0.60433465 0.15430099 1.6480001 1843475
-0.59837377 0.15476914 1.6530001 2106901
-0.5916512 0.15505002 1.6560001 2434839
-0.5841952 0.15514365 1.6570001 2368022
-0.57638186 0.15514365 1.6570001 2171413
-0.56788236 0.15495639 1.6550001 2105877
-0.5590632 0.1546755 1.6520001 2105877
-0.54993874 0.15430099 1.6480001 2304796
-0.54052293 0.15383284 1.6430001 2634528
-0.53147858 0.15345831 1.6390001 2568735
-0.5227915 0.15317743 1.636 2633761
-0.51444757 0.15299018 1.6340001 3817267
-0.5070529 0.1530838 1.6350001 2566430
-0.50025958 0.1533647 1.6380001 3291693
-0.49343792 0.15364558 1.641 2699558
-0.48747596 0.15420735 1.6470001 2633763
-0.48058361 0.15448825 1.6500001 2698786
-0.47394955 0.15486276 1.654 2435614
-0.46727774 0.15523727 1.6580001 2040858
-0.46056819 0.1556118 1.6620001 2895397
-0.45354855 0.15589269 1.6650001 5063729
-0.44623289 0.15607993 1.6670001 5458471
-0.43863544 0.15617357 1.6680001 5128991
-0.43077028 0.15617357 1.6680001 5591352
-0.42214447 0.15589269 1.6650001 5725012
-0.41329822 0.15551817 1.6610001 5397330
-0.40400138 0.15495639 1.6550001 5529688
-0.39476117 0.15439461 1.649 5199692
-0.38510817 0.15364558 1.641 2369053
-0.37576059 0.15299018 1.6340001 2369569
-0.36670426 0.15242839 1.628 2435362
-0.35836616 0.15214752 1.6250001 3751476
-0.35070375 0.15214752 1.6250001 3553325
-0.34367463 0.15242839 1.628 4013876
-0.33744285 0.1530838 1.6350001 3619118
-0.3315483 0.15392646 1.6440001 2960936
-0.32576588 0.15486276 1.654 3815990
-0.32008141 0.15589269 1.6650001 3421230
-0.31391814 0.15673535 1.674 2631971
-0.30767 0.15757801 1.6830001 2434592
-0.30080268 0.15813978 1.6890001 2369571
-0.2937054 0.15860793 1.6940001 2566950
-0.2863923 0.15898244 1.6980001 2698536
-0.27871358 0.1591697 1.7 2895915
-0.27085677 0.15926333 1.7010001 2699306
-0.2629905 0.15935695 1.702 2895913
-0.25496507 0.15935695 1.702 3487280
-0.24708468 0.15945059 1.7030001 3487280
-0.23919486 0.15954423 1.7040001 2434335
-0.23115997 0.15954423 1.7040001 2368801
-0.22286317 0.15935695 1.702 2565923
-0.21458523 0.1591697 1.7 2236958
-0.20620465 0.15888882 1.697 2105372
-0.19785237 0.15860793 1.6940001 2368801
-0.1894163 0.1582334 1.6900001 6053726
-0.18091057 0.15776527 1.6850001 4737349
-0.17245202 0.15729712 1.6800001 2960679
-0.16394266 0.15673535 1.674 2960679
-0.15530348 0.15598631 1.6660001 6252641
-0.14665121 0.15514365 1.6570001 5397851
-0.13791625 0.15411372 1.646 2105629
-0.12920596 0.15299018 1.6340001 1974041
-0.12053447 0.15177299 1.6210001 1579537
-0.11205522 0.15064944 1.6090001 1776916
-0.10375407 0.14961952 1.598 2040088
-0.095677085 0.14877686 1.5890001 1974295
-0.087795958 0.14812145 1.582 1777684
-0.080082417 0.1476533 1.577 1777684
-0.072554223 0.14746605 1.575 1909270
-0.065251648 0.14774694 1.5780001 1975063
-0.057957415 0.14812145 1.582 1514514
-0.050816983 0.14905775 1.5920001 1382928
-0.043663859 0.15027492 1.605 1514260
-0.036478095 0.15186663 1.6220001 1448467
-0.029167555 0.15364558 1.641 1645846
-0.021677837 0.15542454 1.6600001 2039834
-0.014000591 0.15710986 1.6780001 1908248
-0.0061318236 0.1582334 1.6900001 1908248
0.00185772 0.16001236 1.7090001 1974041
0.0091676991 0.1479342 1.58 1843225
0.009371236 0.083423652 0.89100003 2106397
0.013374557 0.082206465 0.87800002 2303776
0.017514607 0.082206465 0.87800002 2303776
0.021654658 0.082206465 0.87800002 2699306
0.025794709 0.082206465 0.87800002 4409924
0.02993476 0.082206465 0.87800002 4936266
0.034074809 0.082206465 0.87800002 5462610
0.038214862 0.082206465 0.87800002 6514528
0.042210195 0.081925586 0.87500006 7304814
0.046389051 0.08201921 0.87600005 9147020
0.050462 0.081925586 0.87500006 10133915
0.054463129 0.081738323 0.87300003 10791845
0.058378305 0.081457436 0.87000006 10791843
0.062193368 0.081082925 0.86600006 11119520
0.065970704 0.080708407 0.86200005 11119515
0.069710322 0.080333889 0.85800004 10986378
0.073498175 0.080052994 0.85500002 11906967
0.077348411 0.079865739 0.85300004 12104859
0.081179798 0.079678476 0.85100001 12301984
0.085092418 0.079584852 0.85000002 12433570
0.089100443 0.079584852 0.85000002 12565156
0.093108468 0.079584852 0.85000002 12630949
0.097345002 0.079772115 0.85200006 12433570
0.10171936 0.080052994 0.85500002 12433572
0.1062457 0.080427513 0.85900003 12105379
0.11080977 0.080802031 0.86300004 11974570
0.11541154 0.081176549 0.86700004 11908781
0.12005106 0.081551068 0.87100005 11909038
0.1244432 0.081738323 0.87300003 11843761
0.1288542 0.081925586 0.87500006 11777968
0.13313207 0.08201921 0.87600005 11777968
0.13741939 0.082112841 0.87700003 11712175
0.14171612 0.082206465 0.87800002 11843761
0.14585617 0.082206465 0.87800002 11843761
0.14999622 0.082206465 0.87800002 11777970
0.15413629 0.082206465 0.87800002 11777970
0.15827633 0.082206465 0.87800002 11909556
0.16241637 0.082206465 0.87800002 11909556
0.16655643 0.082206465 0.87800002 11712947
0.17050207 0.082112841 0.87700003 11778487
0.17443828 0.08201921 0.87600005 11712694
0.17836505 0.081925586 0.87500006 11778487
0.18207383 0.081738323 0.87300003 11778487
0.18597703 0.081644699 0.87200004 11712694
0.1898708 0.081551068 0.87100005 11712694
0.19375513 0.081457436 0.87000006 11712694
0.19763003 0.081363805 0.86900002 11778487
0.20149551 0.081270181 0.86800003 11712694
0.20535156 0.081176549 0.86700004 11581108
0.20919818 0.081082925 0.86600006 12040889
0.21303536 0.080989294 0.86500007 11777717
0.21711411 0.080989294 0.86500007 11843510
0.22093713 0.080895662 0.86400002 11777717
0.22501117 0.080895662 0.86400002 11974326
0.22908521 0.080895662 0.86400002 11974326
0.23315926 0.080895662 0.86400002 11974326
0.23695871 0.080802031 0.86300004 11974326
0.24130733 0.080895662 0.86400002 11908533
0.24538134 0.080895662 0.86400002 11974326
0.24945538 0.080895662 0.86400002 12171705
0.25352943 0.080895662 0.86400002 12171705
0.25760347 0.080895662 0.86400002 12171958
0.2616775 0.080895662 0.86400002 12040372
0.26575154 0.080895662 0.86400002 12040372
0.27013791 0.080989294 0.86500007 12171958
0.27421662 0.080989294 0.86500007 12171958
0.27861711 0.081082925 0.86600006 12171958
0.28302702 0.081176549 0.86700004 12040372
0.28744635 0.081270181 0.86800003 12237751
0.29187512 0.081363805 0.86900002 12040372
0.29597273 0.081363805 0.86900002 12237751
0.30007035 0.081363805 0.86900002 12171958
0.30381796 0.081270181 0.86800003 12171958
0.30755609 0.081176549 0.86700004 12040372
0.31164429 0.081176549 0.86700004 12171958
0.31536832 0.081082925 0.86600006 12171958
0.31908292 0.080989294 0.86500007 12237751
0.32278803 0.080895662 0.86400002 12040372
0.3268621 0.080895662 0.86400002 12237494
0.33093613 0.080895662 0.86400002 12105908
0.33539793 0.080989294 0.86500007 12105908
0.33947664 0.080989294 0.86500007 12237494
0.34395257 0.081082925 0.86600006 12237494
0.34803605 0.081082925 0.86600006 12303287
0.35252613 0.081176549 0.86700004 12237494
0.35661429 0.081176549 0.86700004 12303287
0.36111853 0.081270181 0.86800003 12499896
0.36521143 0.081270181 0.86800003 12368310
0.3693043 0.081270181 0.86800003 12434103
0.37382737 0.081363805 0.86900002 12434103
0.37792498 0.081363805 0.86900002 12499896
0.38202259 0.081363805 0.86900002 12434103
0.38612023 0.081363805 0.86900002 12236724
0.38976881 0.081270181 0.86800003 12039345
0.39386171 0.081270181 0.86800003 11840681
0.39841306 0.081363805 0.86900002 12169646
0.40251067 0.081363805 0.86900002 11972269
0.40707621 0.081457436 0.87000006 11774890
0.41212377 0.081644699 0.87200004 8747648
0.41671285 0.081738323 0.87300003 8091001
0.42082933 0.081738323 0.87300003 8683136
0.42543256 0.081831954 0.87400001 11512488
0.43004525 0.081925586 0.87500006 11709097
0.43466732 0.08201921 0.87600005 9668236
0.43879795 0.08201921 0.87600005 8024436
0.44343421 0.082112841 0.87700003 8156275
0.44756955 0.082112841 0.87700003 10262419
0.45221993 0.082206465 0.87800002 11380132
0.45635998 0.082206465 0.87800002 8221304
0.46102455 0.082300104 0.87900007 8221815
0.46569851 0.082393728 0.88000005 8550780
0.47038192 0.08248736 0.88100004 11775920
0.47507474 0.082580984 0.88200003 12104372
0.4786903 0.08248736 0.88100004 12104372
0.48284444 0.08248736 0.88100004 12235188
0.48644587 0.082393728 0.88000005 12104372
0.49003789 0.082300104 0.87900007 12104372
0.49418265 0.082300104 0.87900007 12170418
0.49776047 0.082206465 0.87800002 12499130
0.50190049 0.082206465 0.87800002 12564923
0.50604057 0.082206465 0.87800002 12564923
0.51018065 0.082206465 0.87800002 12433337
0.51432067 0.082206465 0.87800002 12433337
0.51846075 0.082206465 0.87800002 12564923
0.52260077 0.082206465 0.87800002 12433337
0.52674085 0.082206465 0.87800002 12170165
0.53027624 0.082112841 0.87700003 9404545
0.53258348 0.081831954 0.87400001 7036765
0.83674932 0.12565044 1.342 5261130
0.85501355 0.1274294 1.3610001 4736071
0.87662172 0.12967651 1.3850001 4933186
0.90164441 0.13239174 1.414 7497300
0.92758304 0.13520062 1.4440001 8153170
0.95251036 0.13782224 1.4720001 8415059
0.97444272 0.13997571 1.4950001 7559498
-0.59068316 0.078085572 0.79400003 7766634
-0.58693922 0.078085572 0.79400003 7437667
-0.58319521 0.078085572 0.79400003 7700841
-0.57945132 0.078085572 0.79400003 7437415
-0.57570738 0.078085572 0.79400003 7634794
-0.57196337 0.078085572 0.79400003 7634794
-0.56821942 0.078085572 0.79400003 7700587
-0.56447548 0.078085572 0.79400003 7306599
-0.56073147 0.078085572 0.79400003 7830890
-0.55698752 0.078085572 0.79400003 7765867
-0.55324358 0.078085572 0.79400003 7634796
-0.54949957 0.078085572 0.79400003 7437417
-0.54575562 0.078085572 0.79400003 7765869
-0.54201168 0.078085572 0.79400003 7501925
-0.53826767 0.078085572 0.79400003 7634794
-0.53452373 0.078085572 0.79400003 7437417
-0.53077972 0.078085572 0.79400003 7503210
-0.52703577 0.078085572 0.79400003 7568490
-0.52329189 0.078085572 0.79400003 7305577
-0.51954788 0.078085572 0.79400003 7437163
-0.51580393 0.078085572 0.79400003 7568490
-0.51205999 0.078085572 0.79400003 7568490
-0.50831598 0.078085572 0.79400003 7503210
-0.50457203 0.078085572 0.79400003 7372140
-0.50082809 0.078085572 0.79400003 7569773
-0.49708408 0.078085572 0.79400003 7700335
-0.49334013 0.078085572 0.79400003 7502956
-0.48959616 0.078085572 0.79400003 7634544
-0.48585218 0.078085572 0.79400003 7503728
-0.80757183 0.13286349 1.3510001 7635316
-0.8012014 0.13286349 1.3510001 7701109
-0.79541945 0.13296184 1.3520001 7963511
-0.78904432 0.13296184 1.3520001 7897718
-0.78324807 0.13306019 1.353 7832695
-0.77744246 0.13315853 1.3540001 7964281
-0.77219683 0.13335522 1.3560001 8160890
-0.76636761 0.13345356 1.3570001 7700339
-0.76052892 0.1335519 1.358 8159353
-0.75468087 0.13365026 1.3590001 8290939
-0.74882329 0.13374859 1.36 8356732
-0.74295634 0.13384694 1.3610001 8356986
-0.73708004 0.13394529 1.3620001 8291963
-0.73173064 0.13414197 1.3640001 7962998
-0.72636241 0.13433866 1.3660001 8028791
-0.72202945 0.13473204 1.3700001 8028021
-0.71870327 0.13532211 1.376 7830640
-0.71635586 0.13610886 1.3840001 6380882
-0.71495867 0.13709231 1.3940001 6184018
-0.71346718 0.13807575 1.404 5790030
-0.7118814 0.1390592 1.414 5262916
-0.70970261 0.1399443 1.4230001 5198152
-0.70694488 0.14073107 1.4310001 4737344
-0.70460099 0.14161615 1.4400001 4933953
-0.70265681 0.1425996 1.45 4473400
-0.70061833 0.14358304 1.46 4013619
-0.69943595 0.14476319 1.4720001 3684654
-0.69814032 0.14594331 1.4840001 3421482
-0.69673151 0.14712346 1.4960001 3355689
-0.6956706 0.14840193 1.5090001 3026724
-0.69403076 0.14958206 1.521 3223333
-0.69227779 0.1507622 1.5330001 2762782
-0.68996471 0.15184398 1.544 2697759
-0.68666369 0.15272909 1.5530001 2369051
-0.68327767 0.15361419 1.562 2369051
-0.67894143 0.15430261 1.5690001 2433817
-0.67368317 0.15479434 1.5740001 2630683
-0.66795439 0.15518771 1.5780001 3816242
-0.66135079 0.15538439 1.58 3553070
-0.65472823 0.15558107 1.582 2762784
-0.64808697 0.15577778 1.5840001 2696991
-0.64142674 0.15597446 1.5860001 2369051
-0.63514739 0.15626951 1.5890001 2763550
-0.62883973 0.15656453 1.5920001 2762780
-0.6232844 0.15705626 1.5970001 2631964
-0.61768186 0.15754798 1.6020001 2632221
-0.61279392 0.15823638 1.6090001 2566428
-0.60783988 0.1589248 1.6160001 2106647
-0.60281986 0.15961321 1.623 1909270
-0.59736717 0.16020328 1.6290001 2040086
-0.59149587 0.160695 1.6340001 1908498
-0.58522022 0.16108839 1.6380001 2039827
-0.57855415 0.16138341 1.641 2104852
-0.57116419 0.16148175 1.6420001 1974034
-0.56307846 0.16138341 1.641 1974034
-0.55466384 0.16118672 1.6390001 1711119
-0.54593426 0.16089168 1.636 2041108
-0.5369041 0.16049831 1.6320001 2436634
-0.5279116 0.16010493 1.628 2239255
-0.51927644 0.1598099 1.6250001 2568220
-0.51098436 0.15961321 1.623 3555115
-0.5030213 0.15951487 1.6220001 2634274
-0.4956784 0.15961321 1.623 2502688
-0.48862684 0.1598099 1.6250001 2371872
-0.48244435 0.16030163 1.6300001 2175006
-0.47475836 0.16030163 1.6300001 2174495
-0.46793208 0.16059667 1.6330001 2305059
-0.46079561 0.16079335 1.6350001 2237732
-0.45391741 0.16108839 1.6380001 1974560
-0.44673851 0.16128507 1.6400001 2696478
-0.43927303 0.16138341 1.641 5982505
-0.43153518 0.16138341 1.641 4996889
-0.42328084 0.16118672 1.6390001 2894368
-0.41504535 0.16099003 1.6370001 2829604
-0.40633112 0.16059667 1.6330001 3026472
-0.39741042 0.16010493 1.628 3026729
-0.38829753 0.15951487 1.6220001 2696737
-0.3792412 0.1589248 1.6160001 2368026
-0.37047142 0.15843308 1.6110001 2303003
-0.36197406 0.1580397 1.6070001 2631968
-0.35395548 0.15784301 1.605 3158310
-0.34681901 0.1580397 1.6070001 2698014
-0.34029701 0.15853143 1.6120001 3421739
-0.33434704 0.15931818 1.6200001 2961958
-0.32892659 0.16039996 1.631 2566178
-0.3235994 0.1615801 1.6430001 3553073
-0.31835124 0.16285859 1.6560001 2764327
-0.31260547 0.16394037 1.6670001 3289901
-0.30675593 0.16502216 1.6780001 2171420
-0.30044648 0.16590726 1.687 2039831
-0.29353201 0.16649733 1.6930001 2171417
-0.2863923 0.16698906 1.6980001 2434335
-0.27887753 0.16728409 1.7010001 2566178
-0.27117524 0.16748078 1.7030001 2895143
-0.26314503 0.16748078 1.7030001 3158569
-0.25511488 0.16748078 1.7030001 2500639
-0.24722977 0.16757913 1.7040001 2434592
-0.23919486 0.16757913 1.7040001 5002059
-0.23088865 0.16738242 1.702 5004120
-0.22220846 0.16689071 1.697 4675155
-0.21382788 0.16659568 1.6940001 4609364
-0.20523258 0.16610396 1.6890001 4543055
-0.19668442 0.16561224 1.6840001 3489852
-0.18807134 0.16502216 1.6780001 3289901
-0.17951483 0.16443209 1.6720001 3948601
-0.17091228 0.16374369 1.6650001 4080441
-0.16227777 0.16295692 1.6570001 2960933
-0.15362553 0.16207182 1.6480001 3092519
-0.14496964 0.16108839 1.6380001 2895397
-0.13624048 0.15990824 1.626 2171674
-0.12770356 0.15882646 1.6150001 2105881
-0.11919602 0.15764631 1.603 2105879
-0.11094093 0.15666287 1.5930001 1909270
-0.10284509 0.15577778 1.5840001 1909270
-0.094894327 0.15499102 1.5760001 1909270
-0.087185495 0.15449929 1.5710001 1975063
-0.079625383 0.15420426 1.5680001 2106649
-0.072185695 0.15410592 1.567 2106649
-0.064962193 0.15449929 1.5710001 1975063
-0.057700966 0.15489267 1.575 1580305
-0.050561622 0.15577778 1.5840001 1448719
-0.043473423 0.15715459 1.598 1382928
-0.036320668 0.15882646 1.6150001 1382928
-0.02906091 0.16079335 1.6350001 1645330
-0.021625603 0.16285859 1.6560001 1645330
-0.013992247 0.16492382 1.677 2105881
-0.0061318236 0.16620229 1.6900001 2171674
0.001860981 0.16836588 1.7120001 2039834
0.0091676991 0.15538439 1.58 2039834
0.009371236 0.087624997 0.89100003 2040604
0.013374557 0.086346515 0.87800002 2106397
0.017514607 0.086346515 0.87800002 2369569
0.021654658 0.086346515 0.87800002 2764076
0.025794709 0.086346515 0.87800002 4409924
0.02993476 0.086346515 0.87800002 5002059
0.034074809 0.086346515 0.87800002 5790805
0.038214862 0.086346515 0.87800002 6251356
0.042258434 0.086149827 0.87600005 7369837
0.046389051 0.086149827 0.87600005 9212813
0.050462 0.086051486 0.87500006 10133915
0.054463129 0.085854791 0.87300003 10594977
0.058311198 0.085461415 0.86900002 10726304
0.062049732 0.084969692 0.86400002 10922141
0.065817632 0.084576316 0.86000001 10593169
0.069466576 0.084084593 0.85500002 10656898
0.073240288 0.083789565 0.85200006 11578000
0.076985702 0.083494529 0.84900004 11709586
0.080798224 0.083297841 0.84700006 12367002
0.084691986 0.083199494 0.84600002 12432795
0.088681147 0.083199494 0.84600002 12367002
0.092779852 0.083297841 0.84700006 12433309
0.097002238 0.083494529 0.84900004 12367516
0.10136245 0.083789565 0.85200006 12301723
0.10587465 0.08418294 0.85600007 12104605
0.11055297 0.084674664 0.86100006 11777191
0.11514532 0.08506804 0.86500007 11777193
0.11977539 0.085461415 0.86900002 11711659
0.12430065 0.085756451 0.87200004 11646384
0.12870693 0.085953139 0.87400001 11712177
0.13298009 0.086051486 0.87500006 11777970
0.13726269 0.086149827 0.87600005 11712177
0.14139332 0.086149827 0.87600005 11777970
0.14569005 0.086248174 0.87700003 11646384
0.14982539 0.086248174 0.87700003 11843763
0.15396072 0.086248174 0.87700003 11777970
0.15827633 0.086346515 0.87800002 11909556
0.16223139 0.086248174 0.87700003 11843763
0.16636673 0.086248174 0.87700003 11581361
0.17030765 0.086149827 0.87600005 11778487
0.17423916 0.086051486 0.87500006 11778487
0.17816119 0.085953139 0.87400001 11712694
0.18207383 0.085854791 0.87300003 11712694
0.18597703 0.085756451 0.87200004 11778487
0.18965282 0.085559763 0.87000006 11646901
0.19353242 0.085461415 0.86900002 11581108
0.19740261 0.085363075 0.86800003 11646901
0.20126338 0.085264727 0.86700004 11712694
0.20511471 0.085166387 0.86600006 11778487
0.2089566 0.08506804 0.86500007 11843510
0.21303536 0.08506804 0.86500007 11843510
0.2168631 0.084969692 0.86400002 11909303
0.22093713 0.084969692 0.86400002 11711924
0.22501117 0.084969692 0.86400002 11843510
0.22882007 0.084871352 0.86300004 11711924
0.2328894 0.084871352 0.86300004 11777717
0.23695871 0.084871352 0.86300004 11909303
0.24102804 0.084871352 0.86300004 11777717
0.24509734 0.084871352 0.86300004 11974326
0.24916667 0.084871352 0.86300004 11909303
0.253236 0.084871352 0.86300004 12171705
0.25760347 0.084969692 0.86400002 12041142
0.2616775 0.084969692 0.86400002 11909556
0.26575154 0.084969692 0.86400002 11909556
0.27013791 0.08506804 0.86500007 12171958
0.27421662 0.08506804 0.86500007 12237494
0.27861711 0.085166387 0.86600006 12369080
0.28302702 0.085264727 0.86700004 12105908
0.28744635 0.085363075 0.86800003 12303287
0.29153925 0.085363075 0.86800003 12105908
0.29563215 0.085363075 0.86800003 12303287
0.29972506 0.085363075 0.86800003 12237494
0.30346793 0.085264727 0.86700004 12237494
0.30720136 0.085166387 0.86600006 12105908
0.31128484 0.085166387 0.86600006 12303287
0.31500414 0.08506804 0.86500007 12303287
0.31871399 0.084969692 0.86400002 12237494
0.32241446 0.084871352 0.86300004 12303287
0.32648379 0.084871352 0.86300004 12368310
0.33055311 0.084871352 0.86300004 12368310
0.33501017 0.084969692 0.86400002 12368310
0.33908418 0.084969692 0.86400002 12434103
0.34355542 0.08506804 0.86500007 12236724
0.34763417 0.08506804 0.86500007 12368310
0.35211951 0.085166387 0.86600006 12434103
0.35620299 0.085166387 0.86600006 12369080
0.36070248 0.085264727 0.86700004 12434103
0.36479068 0.085264727 0.86700004 12368310
0.3693043 0.085363075 0.86800003 12369080
0.3733972 0.085363075 0.86800003 12303287
0.3774901 0.085363075 0.86800003 12303287
0.38158301 0.085363075 0.86800003 12434101
0.38567591 0.085363075 0.86800003 12434101
0.38976881 0.085363075 0.86800003 11973550
0.39340794 0.085264727 0.86700004 11840681
0.39795461 0.085363075 0.86800003 12103853
0.40204749 0.085363075 0.86800003 12103853
0.40707621 0.085559763 0.87000006 11840683
0.41165113 0.085658111 0.87100005 9141890
0.41623551 0.085756451 0.87200004 8025206
0.42082933 0.085854791 0.87300003 8222585
0.42543256 0.085953139 0.87400001 11512999
0.42955375 0.085953139 0.87400001 11644074
0.43417114 0.086051486 0.87500006 8878720
0.43829706 0.086051486 0.87500006 8090229
0.44292858 0.086149827 0.87600005 7762287
0.44705921 0.086149827 0.87600005 10788247
0.45170486 0.086248174 0.87700003 11050654
0.45635998 0.086346515 0.87800002 8549753
0.46102455 0.086444862 0.87900007 8089716
0.46569851 0.08654321 0.88000005 8682370
0.46984801 0.08654321 0.88000005 11907508
0.47453609 0.08664155 0.88100004 12104372
0.4786903 0.08664155 0.88100004 12170165
0.48229641 0.08654321 0.88000005 12170165
0.48644587 0.08654321 0.88000005 12170165
0.49003789 0.086444862 0.87900007 12038579
0.49418265 0.086444862 0.87900007 12236473
0.49776047 0.086346515 0.87800002 12433850
0.50190049 0.086346515 0.87800002 12499643
0.50604057 0.086346515 0.87800002 12301751
0.51018065 0.086346515 0.87800002 12499130
0.51432067 0.086346515 0.87800002 12564923
0.51846075 0.086346515 0.87800002 12630716
0.52260077 0.086346515 0.87800002 12433337
0.52674085 0.086346515 0.87800002 12170165
0.53088093 0.086346515 0.87800002 10654099
0.53258348 0.085953139 0.87400001 7561826
0.53670466 0.085953139 0.87400001 5787727
0.85564184 0.13394529 1.3620001 4998981
0.87725461 0.13630556 1.386 4932416
0.90100676 0.13896085 1.4130001 7232593
0.92694062 0.14191119 1.4430001 7363920
0.95186323 0.14466484 1.4710001 7429711
0.97379088 0.14692676 1.4940001 7363916
-0.59068316 0.08182954 0.79400003 7371876
-0.58693922 0.08182954 0.79400003 7832425
-0.58319521 0.08182954 0.79400003 7372644
-0.57945132 0.08182954 0.79400003 7306853
-0.57570738 0.08182954 0.79400003 7569771
-0.57196337 0.08182954 0.79400003 7306601
-0.56821942 0.08182954 0.79400003 7569771
-0.56447548 0.08182954 0.79400003 7700839
-0.56073147 0.08182954 0.79400003 7700841
-0.55698752 0.08182954 0.79400003 7503208
-0.55324358 0.08182954 0.79400003 7832173
-0.54949957 0.08182954 0.79400003 7437415
-0.54575562 0.08182954 0.79400003 7568488
-0.54201168 0.08182954 0.79400003 7568490
-0.53826767 0.08182954 0.79400003 7503210
-0.53452373 0.08182954 0.79400003 7502956
-0.53077972 0.08182954 0.79400003 7634542
-0.52703577 0.08182954 0.79400003 7437163
-0.52329189 0.08182954 0.79400003 7437417
-0.51954788 0.08182954 0.79400003 7437417
-0.51580393 0.08182954 0.79400003 7175015
-0.51205999 0.08182954 0.79400003 7634796
-0.50831598 0.08182954 0.79400003 7634796
-0.50457203 0.08182954 0.79400003 7502697
-0.50082809 0.08182954 0.79400003 7634542
-0.49708408 0.08182954 0.79400003 7634544
-0.49334013 0.08182954 0.79400003 7700337
-0.48959616 0.08182954 0.79400003 7831921
-0.48585218 0.08182954 0.79400003 7766128
-0.80757183 0.1392339 1.3510001 7831923
-0.8012014 0.1392339 1.3510001 7897716
-0.79541945 0.13933696 1.3520001 7766902
-0.78904432 0.13933696 1.3520001 7700855
-0.78324807 0.13944001 1.353 8161660
-0.77744246 0.13954307 1.3540001 7831671
-0.77162731 0.13964613 1.355 8291963
-0.76580286 0.1397492 1.3560001 7699826
-0.75996894 0.13985226 1.3570001 8291193
-0.75412554 0.13995531 1.358 8226168
-0.74772209 0.13995531 1.358 8160377
-0.74186462 0.14005838 1.3590001 7962998
-0.73599762 0.14016142 1.36 8356986
-0.73065776 0.14036755 1.3620001 8291193
-0.72529894 0.14057368 1.3640001 7962228
-0.72097534 0.14098591 1.368 8159605
-0.7176587 0.14160427 1.3740001 7961456
-0.71532071 0.14242876 1.3820001 6380882
-0.71393293 0.14345935 1.3920001 6249298
-0.71245086 0.14448994 1.4020001 5920331
-0.7108745 0.14552055 1.4120001 5394500
-0.70820636 0.14634503 1.4200001 5263943
-0.70546281 0.14716952 1.4280001 4999744
-0.70264375 0.14799398 1.4360001 4933438
-0.69974929 0.14881846 1.4440001 4473400
-0.69773912 0.14984907 1.4540001 3882033
-0.69563466 0.15087967 1.4640001 3684654
-0.69390625 0.15201332 1.475 3487275
-0.69207418 0.15314698 1.4860001 3421480
-0.69013846 0.15428063 1.4970001 3092517
-0.68809885 0.15541428 1.508 3092517
-0.68595558 0.15654795 1.5190001 3222820
-0.68326169 0.15757856 1.529 2959648
-0.68003136 0.1585061 1.5380001 2631196
-0.67627871 0.15933058 1.5460001 2434587
-0.67158514 0.15994893 1.552 2303001
-0.66597903 0.16036117 1.5560001 2303001
-0.65991181 0.16067034 1.559 2763552
-0.65339786 0.16087647 1.5610001 2959648
-0.64686495 0.1610826 1.5630001 5725266
-0.63990402 0.16118565 1.5640001 5266516
-0.63333815 0.16139176 1.5660001 4345412
-0.62675333 0.16159789 1.5680001 3882288
-0.62054473 0.16190708 1.5710001 3815468
-0.61469811 0.1623193 1.575 2763550
-0.60919935 0.1628346 1.58 2237208
-0.60403425 0.16345297 1.5860001 2237463
-0.59918869 0.16417438 1.5930001 2105877
-0.59427714 0.1648958 1.6 2040084
-0.58929962 0.16561723 1.6070001 1974291
-0.58389401 0.16623558 1.613 1908498
-0.57771736 0.16664782 1.6170001 1974034
-0.57115042 0.16695701 1.6200001 1974034
-0.56420726 0.16716312 1.6220001 2104850
-0.55655903 0.16716312 1.6220001 2104850
-0.54891074 0.16716312 1.6220001 2104850
-0.54026139 0.16685395 1.6190001 2040338
-0.53164029 0.16654477 1.6160001 2237717
-0.52304757 0.16623558 1.613 2106901
-0.51448315 0.16592641 1.6100001 1974545
-0.50594693 0.16561723 1.6070001 2237715
-0.49805927 0.16551416 1.6060001 2041106
-0.49018103 0.1654111 1.605 2239255
-0.48291364 0.16551416 1.6060001 2107669
-0.47711673 0.16613252 1.6120001 2107669
-0.46864182 0.16582334 1.6090001 1844249
-0.46134147 0.16592641 1.6100001 2106918
-0.45431346 0.16613252 1.6120001 2172459
-0.44698948 0.16623558 1.613 2237736
-0.43965605 0.16633864 1.6140001 2434335
-0.43204552 0.16633864 1.6140001 3024921
-0.42417201 0.16623558 1.613 3024146
-0.41604969 0.16602947 1.6110001 2761497
-0.40769267 0.16572028 1.608 2301720
-0.39936399 0.1654111 1.605 2433819
-0.39057535 0.1648958 1.6 2565405
-0.38207328 0.16448356 1.5960001 2434589
-0.37337422 0.16396827 1.5910001 2631714
-0.36518225 0.16365908 1.5880001 2697507
-0.35701859 0.1633499 1.585 2236956
-0.34954482 0.1633499 1.585 2894894
-0.34271848 0.16365908 1.5880001 2829619
-0.33628607 0.16417438 1.5930001 2567219
-0.33063206 0.16510193 1.6020001 2435633
-0.32529649 0.16623558 1.613 2369068
-0.32025111 0.16757536 1.626 2434337
-0.31527537 0.16901821 1.6400001 2565405
-0.30998012 0.17035799 1.6530001 2565405
-0.30419657 0.17149164 1.664 2500382
-0.29830933 0.17262529 1.6750001 2500382
-0.2917982 0.17344977 1.6830001 2565405
-0.28487435 0.17406814 1.6890001 2566175
-0.27756596 0.17448038 1.6930001 2434589
-0.26990137 0.17468649 1.6950001 2303003
-0.26206341 0.17478955 1.6960001 2303003
-0.25406626 0.17478955 1.6960001 2368026
-0.24621414 0.1748926 1.697 2368026
-0.23835261 0.17499568 1.6980001 2433819
-0.22993904 0.17468649 1.6950001 2433819
-0.22063716 0.1736559 1.6850001 2565405
-0.21231316 0.17334671 1.682 2696991
-0.2034099 0.17252223 1.674 2302231
-0.19481568 0.17190388 1.6680001 2368024
-0.18616597 0.17118247 1.6610001 2367513
-0.1774749 0.17035799 1.6530001 2303003
-0.16885927 0.16953351 1.6450001 2171417
-0.16022114 0.16860595 1.636 2039831
-0.1515747 0.16757536 1.626 2303003
-0.14302254 0.16654477 1.6160001 2500380
-0.13448091 0.1654111 1.605 2303001
-0.12612209 0.16438051 1.595 2040086
-0.11785758 0.1633499 1.585 2171670
-0.10975701 0.16242237 1.5760001 2040084
-0.10187118 0.16170095 1.5690001 2040084
-0.094171785 0.16118565 1.5640001 1909268
-0.086575031 0.16077341 1.5600001 1975061
-0.079117566 0.1605673 1.5580001 2105877
-0.0717711 0.1605673 1.5580001 2434842
-0.064631388 0.1610826 1.5630001 2369049
-0.057407882 0.16149482 1.567 1974291
-0.050306261 0.16242237 1.5760001 1776914
-0.043228582 0.16376215 1.5890001 1579535
-0.036118262 0.16551416 1.6060001 1513742
-0.028918715 0.16767842 1.6270001 1711121
-0.021534188 0.16994573 1.649 1513742
-0.013958873 0.17241918 1.6730001 1908502
-0.0061209388 0.17386201 1.687 2237467
0.0018533717 0.17571709 1.705 1908248
0.009997434 0.17757216 1.723 1974041
0.009371236 0.091826349 0.89100003 2237467
0.013374557 0.090486571 0.87800002 2369053
0.017514607 0.090486571 0.87800002 2369823
0.021654658 0.090486571 0.87800002 2697764
0.025794709 0.090486571 0.87800002 4606785
0.02993476 0.090486571 0.87800002 5198922
0.034074809 0.090486571 0.87800002 5921621
0.038214862 0.090486571 0.87800002 5987414
0.042354912 0.090486571 0.87800002 7369837
0.046442006 0.090383515 0.87700003 9409420
0.050519671 0.090280451 0.87600005 10264729
0.054463129 0.089971274 0.87300003 10857120
0.058244098 0.08945597 0.86800003 10791327
0.061977915 0.088940673 0.86300004 10593174
0.065664575 0.088425376 0.85800004 10526860
0.069304086 0.087910078 0.85300004 10459259
0.072982393 0.087497838 0.84900004 11511945
0.076713666 0.087188654 0.84600002 11577738
0.08041665 0.086879477 0.84300005 12038291
0.084291555 0.08677642 0.84200007 12038291
0.088261858 0.08677642 0.84200007 12301463
0.092341691 0.086879477 0.84300005 12433049
0.096659467 0.087188654 0.84600002 12301977
0.10112451 0.087600894 0.85000002 12170391
0.10562728 0.088013135 0.85400003 11841685
0.11029617 0.088528432 0.85900003 11316897
0.11501219 0.089043729 0.86400002 11251878
0.11963756 0.08945597 0.86800003 10989476
0.12401556 0.089662097 0.87000006 11186601
0.12841241 0.08986821 0.87200004 11449773
0.13282812 0.090074331 0.87400001 11580589
0.1369493 0.090074331 0.87400001 11843761
0.14123191 0.090177394 0.87500006 11777968
0.14552392 0.090280451 0.87600005 11777968
0.14965455 0.090280451 0.87600005 11777970
0.15378517 0.090280451 0.87600005 11777970
0.1579158 0.090280451 0.87600005 11777970
0.1620464 0.090280451 0.87600005 11843763
0.16617703 0.090280451 0.87600005 11777970
0.17011325 0.090177394 0.87500006 11843763
0.17404002 0.090074331 0.87400001 11909556
0.17795736 0.089971274 0.87300003 11777970
0.18186527 0.08986821 0.87200004 11777970
0.18576376 0.089765154 0.87100005 11712947
0.18943481 0.089559034 0.86900002 11647154
0.19330971 0.08945597 0.86800003 11777970
0.19717519 0.089352913 0.86700004 11777970
0.20103124 0.089249857 0.86600006 11711924
0.20487787 0.0891468 0.86500007 11777717
0.20871502 0.089043729 0.86400002 11777717
0.21278907 0.089043729 0.86400002 11909303
0.2166121 0.088940673 0.86300004 11711924
0.22068143 0.088940673 0.86300004 11646131
0.22475074 0.088940673 0.86300004 11843510
0.22882007 0.088940673 0.86300004 11843510
0.2328894 0.088940673 0.86300004 11909303
0.23695871 0.088940673 0.86300004 11909303
0.24102804 0.088940673 0.86300004 11974326
0.24509734 0.088940673 0.86300004 11974069
0.24916667 0.088940673 0.86300004 12039862
0.253236 0.088940673 0.86300004 12039862
0.25730532 0.088940673 0.86300004 12237241
0.26137465 0.088940673 0.86300004 12171958
0.26575154 0.089043729 0.86400002 12040372
0.26982558 0.089043729 0.86400002 12237751
0.27421662 0.0891468 0.86500007 12237494
0.27861711 0.089249857 0.86600006 12237494
0.28270057 0.089249857 0.86600006 12303287
0.28711519 0.089352913 0.86700004 12105908
0.29120338 0.089352913 0.86700004 12105908
0.29529157 0.089352913 0.86700004 12237494
0.29937977 0.089352913 0.86700004 12303034
0.30311793 0.089249857 0.86600006 12303034
0.30684665 0.0891468 0.86500007 12105655
0.31092539 0.0891468 0.86500007 12170678
0.31463996 0.089043729 0.86400002 12236471
0.31834513 0.088940673 0.86300004 12105655
0.32241446 0.088940673 0.86300004 12237241
0.32648379 0.088940673 0.86300004 12105908
0.33055311 0.088940673 0.86300004 12105908
0.33462241 0.088940673 0.86300004 12303287
0.33869171 0.088940673 0.86300004 12105908
0.34315822 0.089043729 0.86400002 12434103
0.34723225 0.089043729 0.86400002 12236724
0.35171291 0.0891468 0.86500007 12236724
0.35620299 0.089249857 0.86600006 12565176
0.36028647 0.089249857 0.86600006 12368310
0.36436993 0.089249857 0.86600006 12434103
0.36887884 0.089352913 0.86700004 12434103
0.37296703 0.089352913 0.86700004 12499896
0.3770552 0.089352913 0.86700004 12434103
0.38114339 0.089352913 0.86700004 12434103
0.38523158 0.089352913 0.86700004 12236724
0.38931978 0.089352913 0.86700004 11973552
0.39340794 0.089352913 0.86700004 11709097
0.39749613 0.089352913 0.86700004 11906476
0.40204749 0.08945597 0.86800003 12103855
0.40660828 0.089559034 0.86900002 11709867
0.41117853 0.089662097 0.87000006 8945538
0.41575819 0.089765154 0.87100005 8156024
0.42034727 0.08986821 0.87200004 8485757
0.4249458 0.089971274 0.87300003 11578279
0.42906228 0.089971274 0.87300003 11578279
0.43367493 0.090074331 0.87400001 9931406
0.43779612 0.090074331 0.87400001 8090229
0.44242296 0.090177394 0.87500006 7892850
0.44705921 0.090280451 0.87600005 10394005
0.45118982 0.090280451 0.87600005 11576998
0.4558402 0.090383515 0.87700003 8287095
0.46050003 0.090486571 0.87800002 8419964
0.46516931 0.090589635 0.87900007 8946310
0.46931407 0.090589635 0.87900007 11710380
0.47399747 0.090692692 0.88000005 12039092
0.47814697 0.090692692 0.88000005 12104372
0.48174834 0.090589635 0.87900007 12301751
0.4858931 0.090589635 0.87900007 12170165
0.49003789 0.090589635 0.87900007 12104372
0.49362043 0.090486571 0.87800002 12235958
0.49776047 0.090486571 0.87800002 12565436
0.50190049 0.090486571 0.87800002 12499643
0.50604057 0.090486571 0.87800002 12433337
0.51018065 0.090486571 0.87800002 12564923
0.51432067 0.090486571 0.87800002 12235958
0.51846075 0.090486571 0.87800002 12433337
0.52260077 0.090486571 0.87800002 12433337
0.52614093 0.090383515 0.87700003 12170165
0.53088093 0.090486571 0.87800002 11245464
0.53258348 0.090074331 0.87400001 8349025
0.53670466 0.090074331 0.87400001 6179657
0.85564184 0.14036755 1.3620001 5064002
0.87662172 0.14273794 1.3850001 4932157
0.90036911 0.14552055 1.4120001 7233365
0.9256559 0.14850929 1.4410001 7890262
0.95056909 0.15139496 1.4690001 7823183
0.97248733 0.15376534 1.4920001 7560011
-0.59068316 0.085573502 0.79400003 7568740
-0.58693922 0.085573502 0.79400003 7635046
-0.58319521 0.085573502 0.79400003 7635048
-0.57945132 0.085573502 0.79400003 7437669
-0.57570738 0.085573502 0.79400003 7700841
-0.57196337 0.085573502 0.79400003 7306853
-0.56821942 0.085573502 0.79400003 7635048
-0.56447548 0.085573502 0.79400003 7567972
-0.56073147 0.085573502 0.79400003 7437669
-0.55698752 0.085573502 0.79400003 7766634
-0.55324358 0.085573502 0.79400003 7503208
-0.54949957 0.085573502 0.79400003 7568488
-0.54575562 0.085573502 0.79400003 7700074
-0.54201168 0.085573502 0.79400003 7371363
-0.53826767 0.085573502 0.79400003 7436902
-0.53452373 0.085573502 0.79400003 7436902
-0.53077972 0.085573502 0.79400003 7568488
-0.52703577 0.085573502 0.79400003 7700074
-0.52329189 0.085573502 0.79400003 7371622
-0.51954788 0.085573502 0.79400003 7306601
-0.51580393 0.085573502 0.79400003 7503210
-0.51205999 0.085573502 0.79400003 7634796
-0.50831598 0.085573502 0.79400003 7897455
-0.50457203 0.085573502 0.79400003 7634542
-0.50082809 0.085573502 0.79400003 7634542
-0.49708408 0.085573502 0.79400003 7635312
-0.49334013 0.085573502 0.79400003 7635312
-0.48959616 0.085573502 0.79400003 7700335
-0.81273729 0.14538874 1.3490001 7372142
-0.8081696 0.14571206 1.3520001 7570036
-0.80179447 0.14571206 1.3520001 7766902
-0.79541945 0.14571206 1.3520001 7701109
-0.78904432 0.14571206 1.3520001 7635316
-0.78324807 0.14581984 1.353 8030074
-0.77744246 0.14592762 1.3540001 8094843
-0.7710579 0.14592762 1.3540001 7831925
-0.76523805 0.14603539 1.355 7635316
-0.75884879 0.14603539 1.355 8028791
-0.75301486 0.14614317 1.3560001 8028789
-0.74662089 0.14614317 1.3560001 8028791
-0.74077284 0.14625095 1.3570001 8291963
-0.73491526 0.14635871 1.358 8093814
-0.72958475 0.14657426 1.36 8160377
-0.72423548 0.14678982 1.3620001 7962998
-0.71992129 0.14722091 1.3660001 8028791
-0.71661407 0.14786758 1.3720001 7830642
-0.71428549 0.14872977 1.3800001 6315604
-0.7129072 0.14980753 1.3900001 6249298
-0.71143454 0.15088527 1.4000001 6051147
-0.70936412 0.15185525 1.409 5261631
-0.70671016 0.15271744 1.4170001 5460293
-0.70348668 0.15347187 1.424 4736570
-0.70019722 0.1542263 1.4310001 5262914
-0.69684172 0.15498073 1.4380001 4604725
-0.69390011 0.15584293 1.4460001 4340529
-0.69088304 0.15670514 1.4540001 4340529
-0.68873143 0.15778288 1.4640001 3814957
-0.68601972 0.15875286 1.473 3749164
-0.68368423 0.15983061 1.483 3815468
-0.68079811 0.16080059 1.4920001 3552296
-0.67827868 0.16187835 1.5020001 3288611
-0.67521805 0.16284831 1.511 3420197
-0.67163044 0.16371052 1.5190001 3420197
-0.66752994 0.16446494 1.526 3288611
-0.66249794 0.16500382 1.531 3551783
-0.65699089 0.16543493 1.5350001 3288611
-0.65102273 0.16575825 1.5380001 2893853
-0.64418912 0.16586602 1.539 3091234
-0.63775998 0.16608158 1.5410001 3222820
-0.6304937 0.16608158 1.5410001 3354406
-0.62363178 0.16618934 1.5420001 3485220
-0.61716014 0.16640489 1.544 3419427
-0.61066973 0.16662045 1.5460001 3222048
-0.60494101 0.16705155 1.5500001 2893853
-0.59956008 0.16759042 1.5550001 2894366
-0.59451294 0.16823708 1.5610001 2696987
-0.58940911 0.16888373 1.567 2763034
-0.58462018 0.16963816 1.5740001 2828827
-0.5797652 0.17039259 1.5810001 2763034
-0.57448226 0.17103924 1.5870001 2894620
-0.56878549 0.17157811 1.5920001 2763034
-0.56233633 0.17190143 1.595 2828827
-0.55551112 0.17211699 1.5970001 2828314
-0.54832387 0.17222476 1.598 3157279
-0.54078877 0.17222476 1.598 2828314
-0.53292 0.17211699 1.5970001 3091486
-0.52473164 0.17190143 1.595 2959900
-0.51623791 0.17157811 1.5920001 3091486
-0.50777251 0.17125478 1.5890001 2893337
-0.49965015 0.17103924 1.5870001 2828827
-0.49154666 0.17082368 1.585 2894620
-0.48346207 0.17060813 1.5830001 2763804
-0.47599772 0.17060813 1.5830001 2763804
-0.47178912 0.17179367 1.5940001 2763804
-0.4616515 0.17082368 1.585 2566173
-0.45417777 0.17082368 1.585 2565921
-0.44698584 0.17093146 1.5860001 2434594
-0.43978447 0.17103924 1.5870001 2434592
-0.43230122 0.17103924 1.5870001 3090464
-0.42481801 0.17103924 1.5870001 3024410
-0.41707182 0.17093146 1.5860001 3287832
-0.40907681 0.17071591 1.5840001 2761751
-0.40084711 0.17039259 1.5810001 2499095
-0.39264572 0.17006926 1.5780001 2367511
-0.38422853 0.16963816 1.5740001 1841167
-0.37608844 0.16931483 1.5710001 1972753
-0.36797661 0.16899151 1.5680001 1972755
-0.35989308 0.16866818 1.5650001 1973268
-0.3522884 0.16856042 1.5640001 2171165
-0.34491363 0.16856042 1.5640001 2698033
-0.33818629 0.16888373 1.567 2566967
-0.33185291 0.1694226 1.572 2303795
-0.32609153 0.17028481 1.58 2238515
-0.32085973 0.17147033 1.5910001 2238256
-0.31572112 0.17276363 1.603 2565672
-0.31066158 0.17416471 1.6160001 2762784
-0.3054795 0.17556579 1.6290001 2696476
-0.29999194 0.1768591 1.641 2696476
-0.29421315 0.17804462 1.6520001 2565403
-0.28798386 0.17901461 1.6610001 2631196
-0.28116369 0.17966124 1.6670001 2696989
-0.27428696 0.18030789 1.6730001 2631196
-0.26687592 0.18063124 1.6760001 2762784
-0.25912756 0.180739 1.677 2696991
-0.2513698 0.18084678 1.6780001 2696991
-0.24389274 0.18117011 1.6810001 2828577
-0.23624703 0.18138565 1.6830001 2566175
-0.22776854 0.18095456 1.6790001 2631968
-0.21775644 0.17923015 1.6630001 2828577
-0.20966241 0.17901461 1.6610001 2762784
-0.20049363 0.17782907 1.6500001 2696991
-0.19189578 0.17707466 1.6430001 2696991
-0.18336394 0.17632021 1.636 2696989
-0.17479075 0.17545801 1.628 2631196
-0.16629303 0.17459582 1.6200001 2762782
-0.15777278 0.17362584 1.6110001 2303001
-0.14933744 0.17265587 1.6020001 2500382
-0.14089845 0.17157811 1.5920001 2500380
-0.13255377 0.17050035 1.582 2369049
-0.12438247 0.16953038 1.5730001 2434842
-0.11637042 0.16866818 1.5650001 2434842
-0.10857307 0.16802152 1.559 2369049
-0.10089726 0.16748264 1.554 2237463
-0.093328811 0.16705155 1.5500001 2171670
-0.085853569 0.16672823 1.5470001 2105877
-0.078508191 0.16662045 1.5460001 2171670
-0.071264371 0.16672823 1.5470001 2500635
-0.064300582 0.16759042 1.5550001 2369049
-0.057004895 0.1676982 1.5560001 2369049
-0.049955137 0.16866818 1.5650001 2040084
-0.042902119 0.16996148 1.577 1579535
-0.035848387 0.17179367 1.5940001 1513742
-0.028705426 0.17405695 1.6150001 1645328
-0.021390541 0.17653577 1.6380001 1579535
-0.013900468 0.17955348 1.6660001 1711121
-0.0060955407 0.18106233 1.6800001 1711121
0.0018479367 0.18321782 1.7 1974036
0.0099684224 0.18515778 1.7180001 2105624
0.009371236 0.096027695 0.89100003 2237467
0.013374557 0.09462662 0.87800002 2238237
0.017514607 0.09462662 0.87800002 2304030
0.021654658 0.09462662 0.87800002 2830120
0.025794709 0.09462662 0.87800002 4409152
0.02993476 0.09462662 0.87800002 5133129
0.03430767 0.095273271 0.88400006 5921875
0.038345437 0.094949946 0.88100004 6514782
0.042451397 0.094842173 0.88000005 7238251
0.046494961 0.09462662 0.87800002 9212043
0.050519671 0.094411068 0.87600005 10264729
0.054463129 0.094087742 0.87300003 10659487
0.058244098 0.093548864 0.86800003 10659739
0.061906099 0.092902221 0.86200005 10527635
0.06551151 0.09225557 0.85600007 10263686
0.069141589 0.091716684 0.85100001 10261880
0.072724506 0.091177814 0.84600002 11511173
0.076441631 0.090854488 0.84300005 11576966
0.080225863 0.090638936 0.84100002 11971724
0.08399123 0.09042339 0.83900005 11840138
0.087947384 0.09042339 0.83900005 12103310
0.092122607 0.090638936 0.84100002 12300689
0.096430965 0.090962261 0.84400004 12301461
0.10088657 0.091393366 0.84800005 12038291
0.10550359 0.091932245 0.85300004 11906965
0.11016776 0.092471115 0.85800004 11908513
0.11474597 0.092902221 0.86200005 11580069
0.1193619 0.093333319 0.86600006 11514278
0.123873 0.093656644 0.86900002 11580071
0.12826516 0.093872197 0.87100005 11580071
0.13252416 0.09397997 0.87200004 11711659
0.13679262 0.094087742 0.87300003 11777198
0.1410705 0.094195515 0.87400001 11711405
0.14519167 0.094195515 0.87400001 11908786
0.14948371 0.094303295 0.87500006 11712177
0.15360962 0.094303295 0.87500006 11777970
0.15773553 0.094303295 0.87500006 11777970
0.16186142 0.094303295 0.87500006 11777970
0.16579762 0.094195515 0.87400001 11777970
0.16991882 0.094195515 0.87400001 11711924
0.17384088 0.094087742 0.87300003 11777717
0.17775351 0.09397997 0.87200004 11843510
0.1816567 0.093872197 0.87100005 11777717
0.18555048 0.093764424 0.87000006 11711924
0.18921682 0.093548864 0.86800003 11843510
0.19308701 0.093441091 0.86700004 11711924
0.19694777 0.093333319 0.86600006 11777717
0.20079911 0.093225546 0.86500007 11843510
0.204641 0.093117766 0.86400002 11777717
0.20871502 0.093117766 0.86400002 11777717
0.21254279 0.093009993 0.86300004 11777717
0.2166121 0.093009993 0.86300004 11777717
0.22068143 0.093009993 0.86300004 11711924
0.22475074 0.093009993 0.86300004 11777970
0.22882007 0.093009993 0.86300004 11777717
0.23261954 0.092902221 0.86200005 11777717
0.23668414 0.092902221 0.86200005 11843510
0.24074876 0.092902221 0.86200005 11843510
0.24481334 0.092902221 0.86200005 11909303
0.24887794 0.092902221 0.86200005 11974326
0.25294256 0.092902221 0.86200005 11974326
0.25730532 0.093009993 0.86300004 12171705
0.26137465 0.093009993 0.86300004 12171705
0.26544395 0.093009993 0.86300004 12105908
0.26982558 0.093117766 0.86400002 12040372
0.27389959 0.093117766 0.86400002 12171958
0.27829537 0.093225546 0.86500007 12040372
0.28237414 0.093225546 0.86500007 12040372
0.28678405 0.093333319 0.86600006 11974579
0.29086751 0.093333319 0.86600006 11908786
0.29495099 0.093333319 0.86600006 12171705
0.29903445 0.093333319 0.86600006 12171705
0.3027679 0.093225546 0.86500007 12171705
0.30649188 0.093117766 0.86400002 12303034
0.31056592 0.093117766 0.86400002 12237241
0.3142758 0.093009993 0.86300004 12105908
0.31797624 0.092902221 0.86200005 12237494
0.32204086 0.092902221 0.86200005 12040115
0.32610548 0.092902221 0.86200005 12237494
0.33017007 0.092902221 0.86200005 12237494
0.33423468 0.092902221 0.86200005 12237494
0.33869171 0.093009993 0.86300004 12105908
0.34276104 0.093009993 0.86300004 12236724
0.34683037 0.093009993 0.86300004 12236724
0.35130629 0.093117766 0.86400002 12434103
0.35579169 0.093225546 0.86500007 12499896
0.35987043 0.093225546 0.86500007 12236724
0.36394918 0.093225546 0.86500007 12368310
0.36845338 0.093333319 0.86600006 12368310
0.37253684 0.093333319 0.86600006 12368310
0.37662032 0.093333319 0.86600006 12434103
0.38070378 0.093333319 0.86600006 12368310
0.38478726 0.093333319 0.86600006 12170931
0.38887072 0.093333319 0.86600006 11907759
0.3929542 0.093333319 0.86600006 11644074
0.39703766 0.093333319 0.86600006 12235441
0.4015843 0.093441091 0.86700004 12038832
0.40614039 0.093548864 0.86800003 11775660
0.41070589 0.093656644 0.86900002 8812925
0.41528088 0.093764424 0.87000006 8222585
0.41986525 0.093872197 0.87100005 8551552
0.42445904 0.09397997 0.87200004 11907757
0.42857081 0.09397997 0.87200004 11709867
0.43317872 0.094087742 0.87300003 10326682
0.4372952 0.094087742 0.87300003 7959415
0.4419173 0.094195515 0.87400001 7696754
