# .PCD v0.7 - Point Cloud Data file format
VERSION 0.7
FIELDS x y z rgb
SIZE 4 4 4 4
TYPE F F F U
COUNT 1 1 1 1
WIDTH 1174
HEIGHT 1
VIEWPOINT 0 0 0 1 0 0 0
POINTS 1174
DATA ascii
-0.49144962 0.10311116 0.78500003 7700076
-0.48774812 0.10311116 0.78500003 7502443
-0.82091981 0.17758763 1.3520001 7765615
-0.81635207 0.17798167 1.355 7634542
-0.80876732 0.17771897 1.353 7635314
-0.80179447 0.17758763 1.3520001 7831925
-0.79541945 0.17758763 1.3520001 7766900
-0.78904432 0.17758763 1.3520001 7569521
-0.78266919 0.17758763 1.3520001 7766130
-0.77629411 0.17758763 1.3520001 7831923
-0.76991898 0.17758763 1.3520001 7831925
-0.76354384 0.17758763 1.3520001 7699572
-0.75660866 0.17745627 1.3510001 7765365
-0.7502383 0.17745627 1.3510001 8028791
-0.74386787 0.17745627 1.3510001 8291193
-0.73749745 0.17745627 1.3510001 8093814
-0.73166829 0.17758763 1.3520001 8291193
-0.72636604 0.17785032 1.3540001 8093814
-0.72157675 0.17824438 1.3570001 8028019
-0.71728617 0.17876978 1.3610001 8028019
-0.71400249 0.1795579 1.3670001 7303521
-0.71169752 0.18060872 1.3750001 6643538
-0.70931697 0.18165952 1.383 6051147
-0.70686102 0.18271033 1.391 5130045
-0.70332271 0.18349846 1.3970001 6246720
-0.69873035 0.18402386 1.401 7955523
-0.69360626 0.1844179 1.404 8479553
-0.68747526 0.18454927 1.4050001 8610623
-0.68181944 0.18481196 1.4070001 8873795
-0.67614466 0.18507467 1.409 8808002
-0.669976 0.18520603 1.4100001 8676416
-0.66426826 0.18546873 1.4120001 8873282
-0.65900743 0.18586278 1.4150001 8873282
-0.65325731 0.18612549 1.4170001 9005122
-0.64748824 0.18638818 1.419 9070145
-0.64170045 0.1866509 1.4210001 9135938
-0.6363405 0.18704495 1.424 9005122
-0.63051021 0.18730766 1.4260001 9005120
-0.62466103 0.18757036 1.4280001 9004348
-0.61879301 0.18783306 1.4300001 9135934
-0.61290616 0.18809576 1.432 9004350
-0.60700035 0.18835846 1.434 9267009
-0.60065717 0.18848982 1.4350001 9201216
-0.59389073 0.18848982 1.4350001 9267009
-0.58753335 0.18862118 1.4360001 9201216
-0.58076215 0.18862118 1.4360001 9135423
-0.57399094 0.18862118 1.4360001 9135423
-0.56721973 0.18862118 1.4360001 9135423
-0.56083888 0.18875252 1.437 9069628
-0.55444854 0.18888387 1.4380001 9332800
-0.54804873 0.18901522 1.439 9267007
-0.54201567 0.18927793 1.4410001 9333054
-0.53596371 0.18954064 1.4430001 9201468
-0.52952623 0.18967199 1.4440001 9398847
-0.52344131 0.18993469 1.4460001 9267007
-0.51698023 0.19006604 1.447 9201214
-0.51086229 0.19032875 1.4490001 9201468
-0.5043776 0.19046009 1.45 9201214
-0.49788356 0.19059145 1.4510001 9398593
-0.49171844 0.19085415 1.4530001 9135421
-0.48553446 0.19111685 1.455 9267261
-0.47900268 0.19124821 1.4560001 9333054
-0.47278568 0.19151092 1.4580001 9069882
-0.46591079 0.19151092 1.4580001 9069628
-0.45903584 0.19151092 1.4580001 9068858
-0.45216092 0.19151092 1.4580001 9069628
-0.44528598 0.19151092 1.4580001 9070143
-0.43811032 0.19137955 1.457 8872764
-0.43124008 0.19137955 1.457 8806971
-0.42436987 0.19137955 1.457 8938044
-0.41749969 0.19137955 1.457 8806458
-0.41062945 0.19137955 1.457 9069630
-0.40375924 0.19137955 1.457 9004350
-0.396889 0.19137955 1.457 8872762
-0.38975111 0.19124821 1.4560001 8938042
-0.38288561 0.19124821 1.4560001 8741176
-0.3760201 0.19124821 1.4560001 8675383
-0.3694081 0.19137955 1.457 8741176
-0.36303556 0.19164227 1.4590001 8741176
-0.35664412 0.19190496 1.4610001 8609590
-0.35023385 0.19216767 1.4630001 8741178
-0.34380469 0.19243036 1.465 8806971
-0.33735669 0.19269308 1.4670001 8872762
-0.3304393 0.19269308 1.4670001 8806969
-0.32352194 0.19269308 1.4670001 8872764
-0.31660455 0.19269308 1.4670001 8609594
-0.30968717 0.19269308 1.4670001 8479291
-0.30276981 0.19269308 1.4670001 7689523
-0.2960541 0.19282442 1.4680001 8413244
-0.2895259 0.19308713 1.47 8675133
-0.28259438 0.19308713 1.47 8806719
-0.27585042 0.19321848 1.4710001 8675903
-0.26891416 0.19321848 1.4710001 8544317
-0.26179984 0.19308713 1.47 8675903
-0.25469494 0.19295578 1.4690001 8675903
-0.24726215 0.19256173 1.4660001 8675903
-0.23952974 0.19190496 1.4610001 8675903
-0.23248141 0.19177361 1.46 8741696
-0.225288 0.19151092 1.4580001 8675903
-0.21811348 0.19124821 1.4560001 8675903
-0.20936182 0.18954064 1.4430001 8544317
-0.20269799 0.18967199 1.4440001 8544830
-0.1973813 0.19111685 1.455 8413244
-0.19078238 0.19137955 1.457 8741696
-0.1840384 0.19151092 1.4580001 8741696
-0.17825708 0.19269308 1.4670001 8741696
-0.17169008 0.19308713 1.47 8610110
-0.16487065 0.19321848 1.4710001 8675903
-0.15814912 0.19348118 1.473 8544317
-0.15140876 0.19374388 1.475 8675903
-0.14445366 0.19374388 1.475 8675903
-0.13749857 0.19374388 1.475 8413244
-0.13045497 0.19361255 1.4740001 8413244
-0.1234208 0.19348118 1.473 8150072
-0.11631699 0.19321848 1.4710001 8084281
-0.1093064 0.19308713 1.47 7886902
-0.10230523 0.19295578 1.4690001 7624244
-0.09524858 0.19269308 1.4670001 7755830
-0.088331208 0.19269308 1.4670001 7426865
-0.081413828 0.19269308 1.4670001 7230256
-0.074547231 0.19282442 1.4680001 7361842
-0.067625143 0.19282442 1.4680001 7230258
-0.060620353 0.19256173 1.4660001 6901293
-0.054037411 0.19374388 1.475 6967345
-0.047209997 0.1942693 1.4790001 6770736
-0.04034486 0.1947947 1.483 6375978
-0.033419512 0.19518876 1.4860001 6507564
-0.026465869 0.19558282 1.4890001 6244392
-0.01941864 0.19532011 1.4870001 6310185
-0.012298493 0.19361255 1.4740001 6179114
-0.0053335982 0.19308713 1.47 6047528
0.0015979217 0.19308713 1.47 6047274
0.0084308023 0.19085415 1.4530001 6113067
0.015282162 0.19085415 1.4530001 6047274
0.013526888 0.1166404 0.88800007 5784874
0.01761435 0.11598363 0.88300002 5653804
0.021777976 0.11598363 0.88300002 5852214
0.025941605 0.11598363 0.88300002 6708556
0.030105231 0.11598363 0.88300002 7037267
0.03426886 0.11598363 0.88300002 7366232
0.038432486 0.11598363 0.88300002 7893603
0.042596113 0.11598363 0.88300002 8289394
0.046600875 0.11558957 0.88000005 9212041
0.050577343 0.11519552 0.87700003 10330522
0.054400746 0.11453876 0.87200004 10330776
0.058109898 0.11375065 0.86600006 9935246
0.061690647 0.11283118 0.85900003 9540483
0.065281913 0.11204308 0.85300004 9605758
0.068816602 0.11125497 0.84700006 10195317
0.072380662 0.11059821 0.84200007 11115902
0.076078922 0.11020415 0.83900005 11314048
0.079748891 0.10981009 0.83600003 11642500
0.083590791 0.10967875 0.83500004 11642500
0.087423265 0.10954739 0.83400005 11774086
0.091465376 0.10967875 0.83500004 11905672
0.095745437 0.1100728 0.83800006 12037258
0.10005378 0.11046685 0.84100002 11905670
0.10463779 0.11112361 0.84600002 11773051
0.10926896 0.11178037 0.85100001 11836268
0.11381415 0.11230578 0.85500002 11638117
0.11839708 0.11283118 0.85900003 11901029
0.12287518 0.11322524 0.86200005 11835234
0.12723431 0.11348794 0.86400002 11703648
0.13146032 0.11361931 0.86500007 11637855
0.13569577 0.11375065 0.86600006 11703910
0.13994065 0.11388201 0.86700004 11442289
0.14419495 0.11401335 0.86800003 11645605
0.14828785 0.11401335 0.86800003 11579821
0.15238073 0.11401335 0.86800003 11646384
0.15647364 0.11401335 0.86800003 11580591
0.16056652 0.11401335 0.86800003 11646384
0.16446973 0.11388201 0.86700004 11580591
0.16836351 0.11375065 0.86600006 11449775
0.17224784 0.11361931 0.86500007 11647154
0.17612274 0.11348794 0.86400002 11646384
0.17998822 0.1133566 0.86300004 11712177
0.18405755 0.1133566 0.86300004 11777970
0.18790887 0.11322524 0.86200005 11712177
0.19197348 0.11322524 0.86200005 11712177
0.19581066 0.11309389 0.86100006 11777717
0.19987056 0.11309389 0.86100006 11777717
0.20393045 0.11309389 0.86100006 11777717
0.20774876 0.11296254 0.86000001 11843510
0.21155766 0.11283118 0.85900003 11843510
0.21535711 0.11269984 0.85800004 11908786
0.21914715 0.11256848 0.85700005 11908786
0.22318818 0.11256848 0.85700005 11842993
0.22696407 0.11243714 0.85600007 11974579
0.23100038 0.11243714 0.85600007 11908786
0.2350367 0.11243714 0.85600007 11777200
0.23907301 0.11243714 0.85600007 11974579
0.2431093 0.11243714 0.85600007 11974579
0.24714562 0.11243714 0.85600007 12040372
0.25147536 0.11256848 0.85700005 11974579
0.25551641 0.11256848 0.85700005 12040372
0.25955743 0.11256848 0.85700005 12040372
0.26359847 0.11256848 0.85700005 12040372
0.26795179 0.11269984 0.85800004 12171958
0.27199751 0.11269984 0.85800004 11908529
0.27636498 0.11283118 0.85900003 11908529
0.28041545 0.11283118 0.85900003 12237494
0.28479707 0.11296254 0.86000001 12105908
0.28885224 0.11296254 0.86000001 12040115
0.29324803 0.11309389 0.86100006 12237494
0.29730794 0.11309389 0.86100006 12105908
0.30136782 0.11309389 0.86100006 12237494
0.30578244 0.11322524 0.86200005 12040115
0.30984703 0.11322524 0.86200005 12040115
0.31391165 0.11322524 0.86200005 12040115
0.31797624 0.11322524 0.86200005 12040115
0.32204086 0.11322524 0.86200005 12105908
0.32610548 0.11322524 0.86200005 12040115
0.33017007 0.11322524 0.86200005 12040115
0.33384696 0.11309389 0.86100006 12105908
0.33790681 0.11309389 0.86100006 12105908
0.34196672 0.11309389 0.86100006 12105138
0.34562469 0.11296254 0.86000001 12170931
0.34967989 0.11296254 0.86000001 12236724
0.35373506 0.11296254 0.86000001 12236724
0.35779023 0.11296254 0.86000001 12368310
0.36226618 0.11309389 0.86100006 12302004
0.36632603 0.11309389 0.86100006 12302004
0.37038594 0.11309389 0.86100006 12302004
0.37488073 0.11322524 0.86200005 12236211
0.37938493 0.1133566 0.86300004 12368310
0.38389859 0.11348794 0.86400002 12236211
0.38797262 0.11348794 0.86400002 11973039
0.39250043 0.11361931 0.86500007 11708844
0.39657921 0.11361931 0.86500007 11840430
0.40112111 0.11375065 0.86600006 11840683
0.40567249 0.11388201 0.86700004 11644074
0.41023329 0.11401335 0.86800003 8616062
0.41432619 0.11401335 0.86800003 8024438
0.41890112 0.11414471 0.86900002 8222585
0.42299873 0.11414471 0.86900002 11183523
0.42758787 0.11427606 0.87000006 11578281
0.43218637 0.11440741 0.87100005 11510954
0.43679431 0.11453876 0.87200004 7564657
0.44090608 0.11453876 0.87200004 7630448
0.44552818 0.11467011 0.87300003 8551550
0.4501597 0.11480146 0.87400001 11512488
0.4548007 0.11493282 0.87500006 10194578
0.45945108 0.11506417 0.87600005 8024436
0.46411088 0.11519552 0.87700003 8353401
0.46824622 0.11519552 0.87700003 10722719
0.47238156 0.11519552 0.87700003 11578541
0.4765169 0.11519552 0.87700003 11972016
0.48065218 0.11519552 0.87700003 11972016
0.48423475 0.11506417 0.87600005 12103602
0.48836538 0.11506417 0.87600005 12038579
0.49249601 0.11506417 0.87600005 12105655
0.49662662 0.11506417 0.87600005 12303036
0.50075728 0.11506417 0.87600005 12303036
0.50488788 0.11506417 0.87600005 12303036
0.50901848 0.11506417 0.87600005 12368059
0.51314914 0.11506417 0.87600005 12433852
0.51727974 0.11506417 0.87600005 12433852
0.52141035 0.11506417 0.87600005 12236211
0.52554101 0.11506417 0.87600005 12038832
0.52967161 0.11506417 0.87600005 12496303
0.5307554 0.11440741 0.87100005 7691865
0.53486246 0.11440741 0.87100005 7626840
0.84935957 0.17758763 1.3520001 4801854
0.86649466 0.1798206 1.3690001 4473402
0.88634074 0.182579 1.3900001 6970445
0.90959656 0.18599413 1.416 8152650
0.93374485 0.18954064 1.4430001 8481102
0.95684409 0.19282442 1.4680001 8284236
-0.58398777 0.10681269 0.78500003 7503210
-0.58028626 0.10681269 0.78500003 7306853
-0.5765847 0.10681269 0.78500003 7372646
-0.57288325 0.10681269 0.78500003 7504232
-0.56918168 0.10681269 0.78500003 7503462
-0.56548017 0.10681269 0.78500003 7503462
-0.56177866 0.10681269 0.78500003 7306083
-0.5580771 0.10681269 0.78500003 7635048
-0.55437559 0.10681269 0.78500003 7502949
-0.55067408 0.10681269 0.78500003 7437669
-0.54697251 0.10681269 0.78500003 7700587
-0.54327101 0.10681269 0.78500003 7437417
-0.50255424 0.10681269 0.78500003 7765869
-0.4988527 0.10681269 0.78500003 7567466
-0.49515116 0.10681269 0.78500003 7568236
-0.49144962 0.10681269 0.78500003 7568236
-0.48774812 0.10681269 0.78500003 7568236
-0.48404658 0.10681269 0.78500003 7699822
-0.81635207 0.18437093 1.355 7765615
-0.80876732 0.1840988 1.353 7765617
-0.80238748 0.1840988 1.353 7634544
-0.79541945 0.18396275 1.3520001 7964279
-0.78904432 0.18396275 1.3520001 7701107
-0.78266919 0.18396275 1.3520001 7766130
-0.77629411 0.18396275 1.3520001 7897203
-0.76991898 0.18396275 1.3520001 7700339
-0.76354384 0.18396275 1.3520001 7502960
-0.75660866 0.18382667 1.3510001 7962998
-0.7502383 0.18382667 1.3510001 7962998
-0.74386787 0.18382667 1.3510001 8159607
-0.73749745 0.18382667 1.3510001 8159607
-0.73166829 0.18396275 1.3520001 8487802
-0.72636604 0.18423487 1.3540001 8092790
-0.72157675 0.18464307 1.3570001 8291193
-0.71728617 0.18518734 1.3610001 7830642
-0.71400249 0.18600374 1.3670001 7434335
-0.71117991 0.18695621 1.3740001 6643023
-0.70880413 0.18804476 1.3820001 6182733
-0.70635289 0.18913329 1.3900001 4735287
-0.70281929 0.18994969 1.396 6311745
-0.69823164 0.19049396 1.4000001 8283205
-0.69261825 0.1907661 1.4020001 8348739
-0.68649668 0.19090217 1.4030001 8414530
-0.68036562 0.19103822 1.404 8873795
-0.67470503 0.19131036 1.406 8675903
-0.66855049 0.19144642 1.4070001 8808002
-0.66238648 0.1915825 1.4080001 8676416
-0.6566788 0.19185463 1.4100001 9005635
-0.65049118 0.19199069 1.411 8873536
-0.64475048 0.19226284 1.4130001 9004350
-0.63899088 0.19253497 1.4150001 8741948
-0.63276553 0.19267103 1.416 9005120
-0.62697303 0.19294317 1.4180001 9005120
-0.62116152 0.1932153 1.4200001 9070141
-0.6148985 0.19335137 1.4210001 9070141
-0.60905409 0.19362351 1.4230001 9267520
-0.60276747 0.19375956 1.424 9135421
-0.59647143 0.19389564 1.4250001 9398847
-0.59016597 0.19403172 1.4260001 9333054
-0.58344191 0.19403172 1.4260001 9201468
-0.57712227 0.19416776 1.427 9267261
-0.5703935 0.19416776 1.427 9267007
-0.56366473 0.19416776 1.427 9267007
-0.55693603 0.19416776 1.427 9200444
-0.55059284 0.19430384 1.4280001 9266237
-0.54424018 0.1944399 1.429 9267261
-0.53787816 0.19457597 1.4300001 9267261
-0.53150666 0.19471204 1.4310001 9201468
-0.52512574 0.19484811 1.432 9201468
-0.51873541 0.19498418 1.4330001 9267007
-0.5123356 0.19512023 1.434 9201468
-0.50592643 0.19525631 1.4350001 9463870
-0.49985561 0.19552843 1.437 9398077
-0.49342284 0.19566451 1.4380001 9267009
-0.48731902 0.19593664 1.4400001 9201216
-0.48086268 0.19607271 1.4410001 9463616
-0.47439685 0.19620878 1.442 9398075
-0.46824592 0.19648091 1.4440001 9135675
-0.46175659 0.19661698 1.4450001 9069882
-0.45494294 0.19661698 1.4450001 9266491
-0.4481293 0.19661698 1.4450001 8938296
-0.44131565 0.19661698 1.4450001 8937526
-0.43420133 0.19648091 1.4440001 9069112
-0.42739242 0.19648091 1.4440001 9069882
-0.42058349 0.19648091 1.4440001 9069628
-0.41377461 0.19648091 1.4440001 8806456
-0.40696567 0.19648091 1.4440001 9069628
-0.40015674 0.19648091 1.4440001 9004348
-0.39334783 0.19648091 1.4440001 9070395
-0.38653889 0.19648091 1.4440001 8806969
-0.37972996 0.19648091 1.4440001 8873016
-0.37292102 0.19648091 1.4440001 8609844
-0.36661917 0.19675305 1.4460001 8741430
-0.36029848 0.19702518 1.4480001 8741176
-0.3539589 0.1972973 1.45 8741178
-0.34783989 0.19770552 1.4530001 8675385
-0.34145787 0.19797765 1.455 8806971
-0.33482707 0.19811372 1.4560001 8675385
-0.32818678 0.19824977 1.457 8806971
-0.32131657 0.19824977 1.457 8741180
-0.31423056 0.19811372 1.4560001 8741180
-0.30736503 0.19811372 1.4560001 8610364
-0.30049956 0.19811372 1.4560001 7689010
-0.29363403 0.19811372 1.4560001 8479039
-0.28676853 0.19811372 1.4560001 8610623
-0.27990302 0.19811372 1.4560001 8544317
-0.27285001 0.19797765 1.455 8544317
-0.26580641 0.19784158 1.4540001 8610110
-0.25877222 0.19770552 1.4530001 8610110
-0.2515741 0.19743338 1.4510001 8741696
-0.24439485 0.19716126 1.4490001 8544317
-0.2370705 0.19675305 1.4460001 8610110
-0.2300929 0.19661698 1.4450001 8675903
-0.22312476 0.19648091 1.4440001 8610110
-0.21601623 0.19620878 1.442 8544317
-0.20820113 0.19525631 1.4350001 8610110
-0.20143463 0.19525631 1.4350001 8478524
-0.19548212 0.19607271 1.4410001 8610110
-0.18881826 0.19620878 1.442 8675903
-0.18227123 0.19648091 1.4440001 8741696
-0.17606987 0.19716126 1.4490001 8676157
-0.16958775 0.19756944 1.452 8676416
-0.16307735 0.19797765 1.455 8544830
-0.15643129 0.19824977 1.457 8610623
-0.14976637 0.19852193 1.4590001 8610623
-0.14308259 0.19879405 1.4610001 8479037
-0.13619351 0.19879405 1.4610001 8544830
-0.12930442 0.19879405 1.4610001 8215865
-0.12241534 0.19879405 1.4610001 8084279
-0.11544718 0.19865797 1.46 8018488
-0.10848846 0.19852193 1.4590001 8018488
-0.10160881 0.19852193 1.4590001 7952695
-0.094664231 0.19838585 1.4580001 7886902
-0.08778929 0.19838585 1.4580001 7557937
-0.080914356 0.19838585 1.4580001 7296049
-0.074090205 0.19852193 1.4590001 7361842
-0.067256615 0.19865797 1.46 7164463
-0.060372248 0.19865797 1.46 6901291
-0.053707693 0.19947439 1.4660001 6967086
-0.046858873 0.19974652 1.4680001 6901039
-0.040018402 0.20015472 1.4710001 6703662
-0.033127148 0.20042686 1.473 6638382
-0.026199255 0.20056292 1.4740001 6441003
-0.019131344 0.19933832 1.465 6441003
-0.012215056 0.19920225 1.4640001 6375210
-0.0053082001 0.19906619 1.4630001 6243624
0.0015881385 0.19879405 1.4610001 6309417
0.0083669759 0.19620878 1.442 6309417
0.015166467 0.19620878 1.442 6309417
0.013526888 0.1208276 0.88800007 5981483
0.01761435 0.12014726 0.88300002 5653802
0.021777976 0.12014726 0.88300002 5851190
0.025941605 0.12014726 0.88300002 6904650
0.030105231 0.12014726 0.88300002 7365714
0.03426886 0.12014726 0.88300002 7695451
0.038432486 0.12014726 0.88300002 8090723
0.042547874 0.1200112 0.88200003 8224371
0.046600875 0.11973906 0.88000005 9540490
0.050519671 0.11919479 0.87600005 10264729
0.054338362 0.11851446 0.87100005 10330776
0.058042798 0.11769806 0.86500007 9606281
0.061690647 0.11688165 0.85900003 9211518
0.06520538 0.11592919 0.85200006 9539965
0.068816602 0.11524885 0.84700006 10064499
0.072380662 0.11456852 0.84200007 11115902
0.076078922 0.11416031 0.83900005 11247742
0.079748891 0.1137521 0.83600003 11379841
0.083590791 0.11361604 0.83500004 11643013
0.087423265 0.11347997 0.83400005 11577220
0.091465376 0.11361604 0.83500004 11905672
0.095631175 0.11388817 0.83700001 12037258
0.10005378 0.11443244 0.84100002 12037258
0.10451411 0.11497671 0.84500003 11971724
0.10901216 0.11552098 0.84900004 11972510
0.11354792 0.11606525 0.85300004 11841955
0.11812142 0.11660952 0.85700005 11776162
0.12259009 0.11701772 0.86000001 11645089
0.12693979 0.11728986 0.86200005 11579042
0.13130835 0.11756198 0.86400002 11644835
0.13553908 0.11769806 0.86500007 11644837
0.13977924 0.11783412 0.86600006 11448230
0.14402881 0.11797019 0.86700004 11580589
0.14811701 0.11797019 0.86700004 11646382
0.15220518 0.11797019 0.86700004 11449775
0.15629338 0.11797019 0.86700004 11515315
0.16038156 0.11797019 0.86700004 11515568
0.16428004 0.11783412 0.86600006 11449775
0.1681691 0.11769806 0.86500007 11449522
0.1720487 0.11756198 0.86400002 11317936
0.17612274 0.11756198 0.86400002 11711924
0.17998822 0.11742592 0.86300004 11580591
0.18384427 0.11728986 0.86200005 11777970
0.18790887 0.11728986 0.86200005 11712177
0.19175076 0.11715379 0.86100006 11712177
0.19581066 0.11715379 0.86100006 11712177
0.19987056 0.11715379 0.86100006 11777970
0.20369358 0.11701772 0.86000001 11777970
0.20774876 0.11701772 0.86000001 11712177
0.21155766 0.11688165 0.85900003 11777970
0.21535711 0.11674558 0.85800004 11777970
0.21914715 0.11660952 0.85700005 11777717
0.22292775 0.11647345 0.85600007 11842740
0.22696407 0.11647345 0.85600007 11908533
0.23100038 0.11647345 0.85600007 11908533
0.23476212 0.11633738 0.85500002 12040115
0.23907301 0.11647345 0.85600007 11908529
0.2431093 0.11647345 0.85600007 11777200
0.24714562 0.11647345 0.85600007 12040372
0.25118193 0.11647345 0.85600007 11974579
0.25551641 0.11660952 0.85700005 11974579
0.25955743 0.11660952 0.85700005 12040372
0.26359847 0.11660952 0.85700005 11974579
0.26763952 0.11660952 0.85700005 12040372
0.27199751 0.11674558 0.85800004 11974579
0.27604327 0.11674558 0.85800004 11974579
0.28008902 0.11674558 0.85800004 12040372
0.28446591 0.11688165 0.85900003 12040372
0.28851637 0.11688165 0.85900003 11908786
0.29290742 0.11701772 0.86000001 12237494
0.29696262 0.11701772 0.86000001 12105908
0.30101779 0.11701772 0.86000001 12040115
0.3054277 0.11715379 0.86100006 12040115
0.30948758 0.11715379 0.86100006 12105908
0.31354749 0.11715379 0.86100006 12105908
0.31797624 0.11728986 0.86200005 12105908
0.32204086 0.11728986 0.86200005 11974322
0.32610548 0.11728986 0.86200005 12237494
0.33017007 0.11728986 0.86200005 12040115
0.33384696 0.11715379 0.86100006 12237494
0.33790681 0.11715379 0.86100006 12105908
0.34196672 0.11715379 0.86100006 12105908
0.34562469 0.11701772 0.86000001 12105908
0.34967989 0.11701772 0.86000001 12170931
0.35373506 0.11701772 0.86000001 12236724
0.35820627 0.11715379 0.86100006 12236724
0.36226618 0.11715379 0.86100006 12236724
0.36632603 0.11715379 0.86100006 12236724
0.37081611 0.11728986 0.86200005 12105138
0.37488073 0.11728986 0.86200005 12105138
0.37938493 0.11742592 0.86300004 12105138
0.38389859 0.11756198 0.86400002 12039345
0.38797262 0.11756198 0.86400002 11907759
0.39250043 0.11769806 0.86500007 11314856
0.39703766 0.11783412 0.86600006 11840683
0.40112111 0.11783412 0.86600006 11644074
0.40567249 0.11797019 0.86700004 11512488
0.40976065 0.11797019 0.86700004 8682370
0.41432619 0.11810625 0.86800003 7959415
0.41890112 0.11824232 0.86900002 8222585
0.42299873 0.11824232 0.86900002 11447206
0.42758787 0.11837839 0.87000006 11380900
0.43218637 0.11851446 0.87100005 11051686
0.43629339 0.11851446 0.87100005 7762034
0.44090608 0.11865053 0.87200004 7499375
0.44552818 0.11878659 0.87300003 8354684
0.4501597 0.11892265 0.87400001 11315622
0.4548007 0.11905873 0.87500006 10655643
0.45892659 0.11905873 0.87500006 7958130
0.46358168 0.11919479 0.87600005 8090999
0.46771231 0.11919479 0.87600005 9603470
0.47184294 0.11919479 0.87600005 11709614
0.47597358 0.11919479 0.87600005 11906223
0.48010415 0.11919479 0.87600005 12103602
0.48423475 0.11919479 0.87600005 12169395
0.48836538 0.11919479 0.87600005 12104372
0.49249601 0.11919479 0.87600005 12039092
0.49662662 0.11919479 0.87600005 12237241
0.50075728 0.11919479 0.87600005 12303034
0.50488788 0.11919479 0.87600005 12368827
0.50901848 0.11919479 0.87600005 12433850
0.51314914 0.11919479 0.87600005 12236471
0.51727974 0.11919479 0.87600005 12301751
0.52200556 0.11933086 0.87700003 12301751
0.52614093 0.11933086 0.87700003 12301751
0.53027624 0.11933086 0.87700003 11970470
0.5307554 0.11851446 0.87100005 8021346
0.53486246 0.11851446 0.87100005 7100244
0.84810311 0.18369059 1.35 4800569
0.86522877 0.18600374 1.3670001 4866877
0.88506532 0.18886115 1.388 5720639
0.90831184 0.19239889 1.414 7229502
0.93245071 0.19607271 1.4410001 7098429
0.95619231 0.19961046 1.4670001 6967097
-0.58398777 0.11051421 0.78500003 7437415
-0.58028626 0.11051421 0.78500003 7371876
-0.5765847 0.11051421 0.78500003 7635048
-0.57288325 0.11051421 0.78500003 7700841
-0.56918168 0.11051421 0.78500003 7371876
-0.56548017 0.11051421 0.78500003 7503462
-0.56177866 0.11051421 0.78500003 7570025
-0.5580771 0.11051421 0.78500003 7109474
-0.55437559 0.11051421 0.78500003 7503462
-0.55067408 0.11051421 0.78500003 7568742
-0.54697251 0.11051421 0.78500003 7306083
-0.54327101 0.11051421 0.78500003 7437669
-0.50255424 0.11051421 0.78500003 7437417
-0.4988527 0.11051421 0.78500003 7699822
-0.49515116 0.11051421 0.78500003 7436650
-0.49144962 0.11051421 0.78500003 7568236
-0.48774812 0.11051421 0.78500003 7765615
-0.48404658 0.11051421 0.78500003 7699822
-0.81635207 0.1907602 1.355 7699822
-0.80876732 0.19047864 1.353 7830640
-0.80179447 0.19033787 1.3520001 7896433
-0.79541945 0.19033787 1.3520001 7831925
-0.78904432 0.19033787 1.3520001 7701109
-0.78266919 0.19033787 1.3520001 7831923
-0.77629411 0.19033787 1.3520001 7897203
-0.76991898 0.19033787 1.3520001 7897203
-0.76297909 0.19019708 1.3510001 7699824
-0.75660866 0.19019708 1.3510001 7897205
-0.7502383 0.19019708 1.3510001 8356986
-0.74386787 0.19019708 1.3510001 7896435
-0.73804337 0.19033787 1.3520001 8159607
-0.73220938 0.19047864 1.353 8159607
-0.72690248 0.1907602 1.355 8158837
-0.72157675 0.19104177 1.3570001 8158837
-0.71781319 0.19174568 1.3620001 8028019
-0.71452475 0.19259037 1.368 7302751
-0.71169752 0.19357586 1.3750001 6511952
-0.70880413 0.19456133 1.3820001 5919813
-0.70635289 0.19568759 1.3900001 4931893
-0.70231587 0.19639151 1.3950001 6508611
-0.69773287 0.19695462 1.399 8283205
-0.69212419 0.1972362 1.401 8282944
-0.68600732 0.19737698 1.4020001 8741950
-0.6798811 0.19751777 1.4030001 8873536
-0.67374533 0.19765854 1.404 8741950
-0.66760015 0.19779932 1.4050001 9004352
-0.66144556 0.1979401 1.406 9135936
-0.65481579 0.1979401 1.406 9004350
-0.64910817 0.19822168 1.4080001 9070143
-0.64292526 0.19836245 1.409 9070141
-0.636733 0.19850324 1.4100001 9135934
-0.63053119 0.19864401 1.411 9070141
-0.62432009 0.1987848 1.4120001 9069628
-0.61853689 0.19906636 1.414 9135421
-0.61230218 0.19920716 1.4150001 9333313
-0.606058 0.19934793 1.416 9201214
-0.60022771 0.1996295 1.4180001 9530179
-0.59395993 0.19977027 1.419 9332800
-0.58768278 0.19991106 1.4200001 9332800
-0.58098704 0.19991106 1.4200001 9201214
-0.57469571 0.20005184 1.4210001 9332030
-0.56799525 0.20005184 1.4210001 9398077
-0.56168973 0.20019263 1.4220001 9267261
-0.55498457 0.20019263 1.4220001 9332284
-0.5482794 0.20019263 1.4220001 9267007
-0.54157424 0.20019263 1.4220001 9332800
-0.53486902 0.20019263 1.4220001 9332030
-0.52853525 0.20033342 1.4230001 9398077
-0.52182537 0.20033342 1.4230001 9332030
-0.51547742 0.20047419 1.424 9398593
-0.50912017 0.20061497 1.4250001 9332800
-0.50275338 0.20075576 1.4260001 9267261
-0.49637714 0.20089653 1.427 9398077
-0.48999155 0.20103732 1.4280001 9463870
-0.48359644 0.2011781 1.429 9332284
-0.47752568 0.20145968 1.4310001 9398077
-0.47110701 0.20160045 1.432 9266491
-0.46500319 0.201882 1.434 9135673
-0.45856103 0.20202279 1.4350001 9069882
-0.45179453 0.20202279 1.4350001 9069882
-0.44533819 0.20216359 1.4360001 8872249
-0.43826157 0.20202279 1.4350001 8806710
-0.43149507 0.20202279 1.4350001 9069882
-0.4247286 0.20202279 1.4350001 9069628
-0.41767082 0.201882 1.434 8872249
-0.41119567 0.20202279 1.4350001 8872249
-0.40442917 0.20202279 1.4350001 9069628
-0.39766267 0.20202279 1.4350001 8872249
-0.39089617 0.20202279 1.4350001 8741176
-0.3841297 0.20202279 1.4350001 8806969
-0.3773632 0.20202279 1.4350001 8741176
-0.37085497 0.20216359 1.4360001 9004348
-0.36459085 0.20244515 1.4380001 8806456
-0.3583079 0.20272671 1.4400001 8806710
-0.35200602 0.20300826 1.442 8938042
-0.34592474 0.20343062 1.4450001 8872249
-0.33958045 0.20371218 1.447 8872249
-0.33298737 0.20385297 1.4480001 9069630
-0.32638481 0.20399375 1.4490001 8938044
-0.31955233 0.20399375 1.4490001 8675385
-0.31271985 0.20399375 1.4490001 8675385
-0.30567622 0.20385297 1.4480001 8544571
-0.29884845 0.20385297 1.4480001 7492658
-0.29181898 0.20371218 1.447 8347967
-0.28479898 0.20357141 1.4460001 8479037
-0.27778837 0.20343062 1.4450001 8478524
-0.27078724 0.20328985 1.4440001 8610110
-0.2637955 0.20314907 1.4430001 8544317
-0.25663507 0.20286749 1.4410001 8610110
-0.24966691 0.20272671 1.4400001 8675903
-0.24270819 0.20258592 1.439 8610110
-0.23559496 0.20230436 1.437 8544317
-0.22865981 0.20216359 1.4360001 8610364
-0.22173408 0.20202279 1.4350001 8610364
-0.21481781 0.201882 1.434 8544571
-0.20747568 0.20131889 1.4300001 8478778
-0.20059238 0.2011781 1.429 8478524
-0.19426119 0.20160045 1.432 8675903
-0.18763979 0.20174123 1.4330001 8610110
-0.18100895 0.201882 1.434 8873282
-0.17473324 0.20244515 1.4380001 8676157
-0.1681862 0.20272671 1.4400001 8544571
-0.16173239 0.20314907 1.4430001 8676157
-0.15525027 0.20357141 1.4460001 8544317
-0.14863722 0.20385297 1.4480001 8610110
-0.14200529 0.20413454 1.45 8544832
-0.13535453 0.2044161 1.452 8413244
-0.12850788 0.2044161 1.452 8347451
-0.12174503 0.20455688 1.4530001 8150072
-0.11481459 0.2044161 1.452 8018486
-0.10796795 0.2044161 1.452 8018486
-0.1011213 0.2044161 1.452 8018486
-0.094274662 0.2044161 1.452 7886902
-0.087428018 0.2044161 1.452 7558451
-0.080581374 0.2044161 1.452 7492658
-0.073785514 0.20455688 1.4530001 7296051
-0.06698022 0.20469767 1.4540001 7230258
-0.060165491 0.20483844 1.455 7164465
-0.053451248 0.20540158 1.4590001 7164465
-0.046635434 0.20568314 1.4610001 7032879
-0.039800763 0.2059647 1.4630001 6901039
-0.032924742 0.2061055 1.4640001 6638380
-0.026021512 0.2061055 1.4640001 6375978
-0.019039931 0.2052608 1.4580001 6375978
-0.01215665 0.20512 1.457 6441003
-0.0052900584 0.2052608 1.4580001 6309417
0.0015837904 0.20512 1.457 6441003
0.0083669759 0.20300826 1.442 6375210
0.015166467 0.20300826 1.442 6243624
0.013526888 0.12501481 0.88800007 5981481
0.01761435 0.12431089 0.88300002 5522216
0.021777976 0.12431089 0.88300002 5719604
0.025941605 0.12431089 0.88300002 6905163
0.030105231 0.12431089 0.88300002 7299921
0.03426886 0.12431089 0.88300002 7695449
0.038345437 0.12402933 0.88100004 8158060
0.042547874 0.12417011 0.88200003 8224371
0.04654792 0.12374777 0.87900007 9408902
0.050519671 0.12332541 0.87600005 10198418
0.054338362 0.12262151 0.87100005 9936016
0.058042798 0.12177681 0.86500007 9409672
0.061618831 0.12079133 0.85800004 9211264
0.06520538 0.11994664 0.85200006 9408125
0.068816602 0.11924273 0.84700006 10129522
0.072380662 0.11853882 0.84200007 11115902
0.076078922 0.11811647 0.83900005 11116156
0.079748891 0.11769412 0.83600003 11379328
0.083590791 0.11755334 0.83500004 11511427
0.087423265 0.11741255 0.83400005 11643013
0.091465376 0.11755334 0.83500004 11774599
0.095631175 0.1178349 0.83700001 11971978
0.099934809 0.11825725 0.84000003 11774599
0.10439043 0.11882038 0.84400004 11971726
0.10888376 0.11938351 0.84800005 11776160
0.11341481 0.11994664 0.85200006 11710628
0.11784575 0.12036898 0.85500002 11644835
0.122305 0.12079133 0.85800004 11514021
0.12664527 0.1210729 0.86000001 11645609
0.13100439 0.12135446 0.86200005 11514280
0.13522568 0.12149524 0.86300004 11514026
0.13961783 0.12177681 0.86500007 11449003
0.14369658 0.12177681 0.86500007 11449003
0.14794616 0.12191759 0.86600006 11712175
0.15202963 0.12191759 0.86600006 11646384
0.1561131 0.12191759 0.86600006 11646384
0.16019657 0.12191759 0.86600006 11646384
0.16428004 0.12191759 0.86600006 11646384
0.1681691 0.12177681 0.86500007 11646384
0.1720487 0.12163603 0.86400002 11646131
0.17591889 0.12149524 0.86300004 11448752
0.17998822 0.12149524 0.86300004 11777717
0.18384427 0.12135446 0.86200005 11711924
0.18790887 0.12135446 0.86200005 11711924
0.19197348 0.12135446 0.86200005 11843510
0.19603808 0.12135446 0.86200005 11711924
0.19987056 0.12121368 0.86100006 11777717
0.20393045 0.12121368 0.86100006 11777717
0.20774876 0.1210729 0.86000001 11777970
0.21155766 0.12093211 0.85900003 11712177
0.21535711 0.12079133 0.85800004 11777970
0.21914715 0.12065055 0.85700005 11777970
0.22292775 0.12050977 0.85600007 11843763
0.22696407 0.12050977 0.85600007 11777717
0.23100038 0.12050977 0.85600007 11843510
0.2350367 0.12050977 0.85600007 11908533
0.23907301 0.12050977 0.85600007 12040115
0.2431093 0.12050977 0.85600007 11908786
0.24714562 0.12050977 0.85600007 11908786
0.25118193 0.12050977 0.85600007 11974579
0.25551641 0.12065055 0.85700005 11974579
0.25955743 0.12065055 0.85700005 11908533
0.26359847 0.12065055 0.85700005 11974326
0.26763952 0.12065055 0.85700005 12105655
0.2716805 0.12065055 0.85700005 12105655
0.27572155 0.12065055 0.85700005 12105655
0.27976257 0.12065055 0.85700005 11974069
0.28413478 0.12079133 0.85800004 12039862
0.2881805 0.12079133 0.85800004 12237241
0.29222625 0.12079133 0.85800004 12237241
0.2966173 0.12093211 0.85900003 12040115
0.30066776 0.12093211 0.85900003 11974322
0.30507293 0.1210729 0.86000001 12040115
0.30912811 0.1210729 0.86000001 12040115
0.31354749 0.12121368 0.86100006 11908529
0.31760737 0.12121368 0.86100006 12105655
0.32166725 0.12121368 0.86100006 12039862
0.32610548 0.12135446 0.86200005 12170678
0.32978705 0.12121368 0.86100006 12236471
0.33384696 0.12121368 0.86100006 12040115
0.33790681 0.12121368 0.86100006 11974322
0.34156951 0.1210729 0.86000001 12040115
0.34562469 0.1210729 0.86000001 11974069
0.34967989 0.1210729 0.86000001 12236471
0.35373506 0.1210729 0.86000001 12236471
0.35820627 0.12121368 0.86100006 12104885
0.36226618 0.12121368 0.86100006 12236471
0.36632603 0.12121368 0.86100006 12170678
0.37081611 0.12135446 0.86200005 12170678
0.37531561 0.12149524 0.86300004 12236724
0.37938493 0.12149524 0.86300004 12105138
0.38389859 0.12163603 0.86400002 12105138
0.38842168 0.12177681 0.86500007 11907759
0.39250043 0.12177681 0.86500007 11512488
0.39703766 0.12191759 0.86600006 11709867
0.40112111 0.12191759 0.86600006 11841453
0.40567249 0.12205838 0.86700004 11248546
0.40976065 0.12205838 0.86700004 8418681
0.41432619 0.12219916 0.86800003 7894135
0.41890112 0.12233993 0.86900002 8092535
0.42299873 0.12233993 0.86900002 11316390
0.42758787 0.12248072 0.87000006 11512488
0.43169016 0.12248072 0.87000006 10985123
0.43629339 0.12262151 0.87100005 8024438
0.44090608 0.12276229 0.87200004 7894135
0.44501784 0.12276229 0.87200004 8223868
0.44964465 0.12290306 0.87300003 11315109
0.45428088 0.12304384 0.87400001 11379366
0.45840207 0.12304384 0.87400001 8156024
0.46305251 0.12318464 0.87500006 7959415
0.4671784 0.12318464 0.87500006 9406859
0.47130433 0.12318464 0.87500006 11578541
0.47543022 0.12318464 0.87500006 11972786
0.47955608 0.12318464 0.87500006 12103602
0.48368198 0.12318464 0.87500006 11906223
0.4878079 0.12318464 0.87500006 12170165
0.49193379 0.12318464 0.87500006 12499130
0.49662662 0.12332541 0.87600005 12630716
0.50075728 0.12332541 0.87600005 12564923
0.50488788 0.12332541 0.87600005 12368827
0.50901848 0.12332541 0.87600005 12237241
0.51373488 0.12346619 0.87700003 12433852
0.51787025 0.12346619 0.87700003 12433850
0.52200556 0.12346619 0.87700003 12499130
0.52674085 0.12360698 0.87800002 12170165
0.53088093 0.12360698 0.87800002 11903396
0.53989589 0.12473324 0.88600004 9400934
0.53486246 0.12262151 0.87100005 7954773
0.84747487 0.18991551 1.3490001 5065024
0.86396283 0.19216801 1.365 4604473
0.88442773 0.19526525 1.3870001 7823955
0.90831184 0.19906636 1.414 9204561
0.93245071 0.20286749 1.4410001 9533524
0.95619231 0.20652784 1.4670001 9138766
-0.58398777 0.11421573 0.78500003 7635048
-0.58028626 0.11421573 0.78500003 7699558
-0.5765847 0.11421573 0.78500003 7568488
-0.57288325 0.11421573 0.78500003 7306599
-0.56918168 0.11421573 0.78500003 7504232
-0.56548017 0.11421573 0.78500003 7306599
-0.56177866 0.11421573 0.78500003 7371622
-0.5580771 0.11421573 0.78500003 7305829
-0.55437559 0.11421573 0.78500003 7437415
-0.55067408 0.11421573 0.78500003 7502695
-0.54697251 0.11421573 0.78500003 7502695
-0.54327101 0.11421573 0.78500003 7699558
-0.5395695 0.11421573 0.78500003 7698531
-0.53586793 0.11421573 0.78500003 7633765
-0.50255424 0.11421573 0.78500003 7436650
-0.4988527 0.11421573 0.78500003 7765615
-0.49515116 0.11421573 0.78500003 7502956
-0.49144962 0.11421573 0.78500003 7634542
-0.48774812 0.11421573 0.78500003 7699822
-0.48404658 0.11421573 0.78500003 7765617
-0.81574965 0.19700395 1.3540001 7766130
-0.8081696 0.19671296 1.3520001 7897203
-0.8012014 0.19656746 1.3510001 7897203
-0.7948311 0.19656746 1.3510001 7831923
-0.78846067 0.19656746 1.3510001 7701107
-0.78209031 0.19656746 1.3510001 7701107
-0.77571988 0.19656746 1.3510001 7831410
-0.76934946 0.19656746 1.3510001 7831412
-0.76297909 0.19656746 1.3510001 7568240
-0.75660866 0.19656746 1.3510001 8226170
-0.75079364 0.19671296 1.3520001 8028021
-0.7444185 0.19671296 1.3520001 8422779
-0.73858923 0.19685845 1.353 8159607
-0.73275059 0.19700395 1.3540001 8093814
-0.72743899 0.19729495 1.3560001 8093814
-0.72264022 0.19773144 1.3590001 8028021
-0.71834022 0.19831343 1.363 8224630
-0.71504712 0.19918641 1.3690001 7039066
-0.71169752 0.20005941 1.3750001 6643023
-0.70931697 0.20122337 1.383 6116167
-0.70635289 0.20224187 1.3900001 5128502
-0.70231587 0.20296936 1.3950001 6969162
-0.69773287 0.20355134 1.399 8283205
-0.69212419 0.20384234 1.401 8545346
-0.68600732 0.20398784 1.4020001 8873284
-0.67939645 0.20398784 1.4020001 8741696
-0.67326546 0.20413335 1.4030001 8873536
-0.66664988 0.20413335 1.4030001 8872766
-0.6605047 0.20427883 1.404 9004352
-0.65388435 0.20427883 1.404 8872764
-0.64772511 0.20442434 1.4050001 9135936
-0.64155638 0.20456983 1.406 9070143
-0.63537824 0.20471533 1.4070001 9201727
-0.62919068 0.20486084 1.4080001 9135934
-0.62299359 0.20500632 1.409 9135421
-0.6167872 0.20515183 1.4100001 9661765
-0.61057127 0.20529731 1.411 9398593
-0.60434598 0.20544282 1.4120001 9332800
-0.59811127 0.20558833 1.4130001 9332800
-0.59228569 0.20587932 1.4150001 9332800
-0.58602732 0.2060248 1.416 9267007
-0.5797596 0.20617031 1.4170001 9332030
-0.57348239 0.20631582 1.4180001 9332030
-0.56679606 0.20631582 1.4180001 9463616
-0.56010973 0.20631582 1.4180001 9463870
-0.55342346 0.20631582 1.4180001 9201468
-0.54673713 0.20631582 1.4180001 9333054
-0.5400508 0.20631582 1.4180001 9529663
-0.53336447 0.20631582 1.4180001 9398077
-0.52630669 0.20617031 1.4170001 9398077
-0.51999182 0.20631582 1.4180001 9398077
-0.51330549 0.20631582 1.4180001 9463870
-0.50661922 0.20631582 1.4180001 9398077
-0.50028545 0.2064613 1.419 9332284
-0.49394223 0.20660681 1.4200001 9661249
-0.48758963 0.2067523 1.4210001 9529663
-0.48122755 0.2068978 1.4220001 9463870
-0.47518975 0.20718879 1.424 9398077
-0.46880412 0.20733429 1.4250001 9332284
-0.46273333 0.20762528 1.427 9266491
-0.45632416 0.20777078 1.4280001 9398077
-0.44990548 0.20791627 1.429 9200444
-0.4431673 0.20791627 1.429 9200444
-0.43642911 0.20791627 1.429 9068858
-0.4296909 0.20791627 1.429 8938296
-0.42265674 0.20777078 1.4280001 8740663
-0.41592327 0.20777078 1.4280001 8872249
-0.40918982 0.20777078 1.4280001 8938042
-0.40273815 0.20791627 1.429 9069628
-0.39599997 0.20791627 1.429 8872764
-0.38926175 0.20791627 1.429 8741948
-0.38279128 0.20806177 1.4300001 8873534
-0.37604836 0.20806177 1.4300001 8676153
-0.3695637 0.20820728 1.4310001 8806969
-0.36306959 0.20835277 1.432 8675637
-0.35681492 0.20864376 1.434 8741176
-0.35078549 0.20908026 1.437 8675383
-0.34448838 0.20937125 1.439 8675385
-0.33817241 0.20966226 1.4410001 8806969
-0.33160755 0.20980774 1.442 8806969
-0.32503334 0.20995325 1.4430001 8806969
-0.31822914 0.20995325 1.4430001 8872764
-0.31142491 0.20995325 1.4430001 8741180
-0.30462071 0.20995325 1.4430001 8412985
-0.29761013 0.20980774 1.442 7163693
-0.29060897 0.20966226 1.4410001 8216379
-0.28361723 0.20951675 1.4400001 8545084
-0.2766349 0.20937125 1.439 8544571
-0.26947454 0.20908026 1.437 8478778
-0.26251581 0.20893477 1.4360001 8544571
-0.25538841 0.20864376 1.434 8544571
-0.24845326 0.20849827 1.4330001 8610364
-0.24152754 0.20835277 1.432 8675387
-0.23461127 0.20820728 1.4310001 8741180
-0.22786364 0.20820728 1.4310001 8675903
-0.22096148 0.20806177 1.4300001 8544317
-0.21406879 0.20791627 1.429 8544317
-0.20689534 0.20747979 1.4260001 8478524
-0.20017129 0.20747979 1.4260001 8478524
-0.19358291 0.20762528 1.427 8544317
-0.18685414 0.20762528 1.427 8675903
-0.1802516 0.20777078 1.4280001 8675903
-0.17376114 0.20806177 1.4300001 8675903
-0.16736862 0.20849827 1.4330001 8873282
-0.16083574 0.20878926 1.4350001 8675905
-0.15439135 0.20922576 1.4380001 8479039
-0.14791867 0.20966226 1.4410001 8676418
-0.14131975 0.20995325 1.4430001 8347451
-0.134702 0.21024424 1.4450001 8544830
-0.12797686 0.21038975 1.4460001 8347451
-0.12124229 0.21053523 1.447 8150072
-0.11441922 0.21053523 1.447 8018486
-0.10759616 0.21053523 1.447 8150072
-0.10077309 0.21053523 1.447 8018486
-0.093950026 0.21053523 1.447 7886900
-0.087126955 0.21053523 1.447 7624244
-0.080359384 0.21068074 1.4480001 7558451
-0.073582388 0.21082625 1.4490001 7296051
-0.066795953 0.21097173 1.45 7230258
-0.060000092 0.21111724 1.4510001 7032625
-0.053268068 0.21155372 1.4540001 6901039
-0.046443913 0.21169922 1.455 6901039
-0.039637532 0.21199021 1.457 6704173
-0.032767311 0.21199021 1.457 6506794
-0.025897091 0.21199021 1.457 6638380
-0.018987697 0.21155372 1.4540001 6638382
-0.012123276 0.21140823 1.4530001 6375210
-0.0052719172 0.21140823 1.4530001 6243624
0.0015794424 0.21140823 1.4530001 6375210
0.0083669759 0.20980774 1.442 6375210
0.015166467 0.20980774 1.442 6375210
0.013526888 0.12920201 0.88800007 6047274
0.01761435 0.1284745 0.88300002 5850667
0.021777976 0.1284745 0.88300002 5786421
0.025941605 0.1284745 0.88300002 6905163
0.030105231 0.1284745 0.88300002 7299921
0.03430767 0.12862001 0.88400006 7629656
0.038345437 0.12818351 0.88100004 8223599
0.042499635 0.12818351 0.88100004 8223601
0.046494961 0.12774701 0.87800002 9540490
0.050462 0.12731053 0.87500006 10066834
0.054275975 0.12658304 0.87000006 9935248
0.057975691 0.12571006 0.86400002 9474695
0.061618831 0.12483706 0.85800004 9539713
0.06520538 0.12396408 0.85200006 9473659
0.068816602 0.1232366 0.84700006 10195317
0.072466619 0.1226546 0.84300005 11115902
0.076078922 0.12207261 0.83900005 11181949
0.079844289 0.12178161 0.83700001 11379328
0.083590791 0.12149062 0.83500004 11444867
0.087528087 0.12149062 0.83500004 11643013
0.091465376 0.12149062 0.83500004 11840392
0.095631175 0.12178161 0.83700001 11840392
0.099815838 0.12207261 0.83900005 11840392
0.10426674 0.1226546 0.84300005 11840910
0.10862695 0.12309109 0.84600002 11710880
0.11314857 0.12367308 0.85000002 11777191
0.11757009 0.12410958 0.85300004 11448485
0.12201991 0.12454607 0.85600007 11383464
0.12635075 0.12483706 0.85800004 11317671
0.13070042 0.12512806 0.86000001 11580589
0.135069 0.12541907 0.86200005 11580589
0.13929501 0.12556456 0.86300004 11646382
0.14369658 0.12585555 0.86500007 11580589
0.14777534 0.12585555 0.86500007 11842991
0.15202963 0.12600105 0.86600006 11777968
0.1561131 0.12600105 0.86600006 11712177
0.16019657 0.12600105 0.86600006 11777970
0.16409034 0.12585555 0.86500007 11712177
0.1681691 0.12585555 0.86500007 11712177
0.1720487 0.12571006 0.86400002 11646131
0.17612274 0.12571006 0.86400002 11646131
0.17998822 0.12556456 0.86300004 11711924
0.18405755 0.12556456 0.86300004 11777717
0.18812686 0.12556456 0.86300004 11646131
0.19197348 0.12541907 0.86200005 11711924
0.19603808 0.12541907 0.86200005 11646131
0.20010269 0.12541907 0.86200005 11777717
0.20393045 0.12527356 0.86100006 11711924
0.20774876 0.12512806 0.86000001 11711924
0.21155766 0.12498257 0.85900003 11842740
0.21535711 0.12483706 0.85800004 11908533
0.21914715 0.12469157 0.85700005 11646131
0.22318818 0.12469157 0.85700005 11777717
0.22696407 0.12454607 0.85600007 11711924
0.23100038 0.12454607 0.85600007 11777717
0.2350367 0.12454607 0.85600007 11777717
0.23907301 0.12454607 0.85600007 11908533
0.24339332 0.12469157 0.85700005 11974579
0.24743435 0.12469157 0.85700005 11974579
0.25147536 0.12469157 0.85700005 11908533
0.25551641 0.12469157 0.85700005 11842740
0.25955743 0.12469157 0.85700005 12040119
0.26359847 0.12469157 0.85700005 11908533
0.26763952 0.12469157 0.85700005 11974069
0.2716805 0.12469157 0.85700005 12039862
0.27572155 0.12469157 0.85700005 12105655
0.27943614 0.12454607 0.85600007 11974069
0.28347245 0.12454607 0.85600007 12105655
0.28784463 0.12469157 0.85700005 12039862
0.29188567 0.12469157 0.85700005 12105655
0.29592672 0.12469157 0.85700005 12039862
0.30031776 0.12483706 0.85800004 11974069
0.30436349 0.12483706 0.85800004 12040115
0.30876866 0.12498257 0.85900003 12040115
0.31318331 0.12512806 0.86000001 12105908
0.31723848 0.12512806 0.86000001 12040115
0.32166725 0.12527356 0.86100006 12105138
0.32572716 0.12527356 0.86100006 12170931
0.32978705 0.12527356 0.86100006 12236724
0.33384696 0.12527356 0.86100006 12105138
0.33790681 0.12527356 0.86100006 12170931
0.34156951 0.12512806 0.86000001 12170931
0.34562469 0.12512806 0.86000001 12170931
0.34967989 0.12512806 0.86000001 12105138
0.35373506 0.12512806 0.86000001 12040115
0.35779023 0.12512806 0.86000001 12040115
0.36226618 0.12527356 0.86100006 12236724
0.36632603 0.12527356 0.86100006 12368310
0.37081611 0.12541907 0.86200005 12039092
0.37531561 0.12556456 0.86300004 12170678
0.37938493 0.12556456 0.86300004 12039092
0.38389859 0.12571006 0.86400002 12105138
0.38842168 0.12585555 0.86500007 11907759
0.39250043 0.12585555 0.86500007 11578281
0.39657921 0.12585555 0.86500007 11840683
0.40112111 0.12600105 0.86600006 11840683
0.40520459 0.12600105 0.86600006 10129299
0.40976065 0.12614654 0.86700004 8091001
0.41432619 0.12629203 0.86800003 7697524
0.41841909 0.12629203 0.86800003 10065555
0.42299873 0.12643754 0.86900002 11512488
0.42709637 0.12643754 0.86900002 11709097
0.43169016 0.12658304 0.87000006 10984871
0.43579251 0.12658304 0.87000006 8024440
0.44040045 0.12672853 0.87100005 7827829
0.44450751 0.12672853 0.87100005 10459798
0.44912958 0.12687403 0.87200004 11578279
0.45376113 0.12701952 0.87300003 11050401
0.45787761 0.12701952 0.87300003 8221302
0.46252328 0.12716502 0.87400001 7959926
0.46664447 0.12716502 0.87400001 9143940
0.47076565 0.12716502 0.87400001 11840683
0.47488683 0.12716502 0.87400001 12169395
0.47900799 0.12716502 0.87400001 12169395
0.48368198 0.12731053 0.87500006 12300981
0.4878079 0.12731053 0.87500006 12170165
0.49193379 0.12731053 0.87500006 12301751
0.49605972 0.12731053 0.87500006 12301751
0.50075728 0.12745602 0.87600005 12433590
0.50488788 0.12745602 0.87600005 12499383
0.50901848 0.12745602 0.87600005 12499130
0.51373488 0.12760152 0.87700003 12499130
0.51787025 0.12760152 0.87700003 12433337
0.52260077 0.12774701 0.87800002 12629946
0.52674085 0.12774701 0.87800002 12432567
0.53148556 0.12789252 0.87900007 10654610
0.53502095 0.12774701 0.87800002 9664358
0.53486246 0.12672853 0.87100005 8084811
0.84684664 0.19613096 1.348 4866875
0.86396283 0.19860442 1.365 4866873
0.88442773 0.20180538 1.3870001 7429709
0.90831184 0.20573381 1.414 9269837
0.93309772 0.20980774 1.442 9466446
0.95749587 0.21373619 1.4690001 9729358
-0.58398777 0.11791725 0.78500003 7504230
-0.58028626 0.11791725 0.78500003 7306853
-0.5765847 0.11791725 0.78500003 7568742
-0.57288325 0.11791725 0.78500003 7437156
-0.56918168 0.11791725 0.78500003 7437669
-0.56548017 0.11791725 0.78500003 7700841
-0.56177866 0.11791725 0.78500003 7437669
-0.5580771 0.11791725 0.78500003 7306081
-0.55437559 0.11791725 0.78500003 7635046
-0.55067408 0.11791725 0.78500003 7437156
-0.54697251 0.11791725 0.78500003 7633511
-0.54327101 0.11791725 0.78500003 7502695
-0.5395695 0.11791725 0.78500003 7502949
-0.53586793 0.11791725 0.78500003 7437156
-0.53216642 0.11791725 0.78500003 7830890
-0.52846485 0.11791725 0.78500003 7830120
-0.52476335 0.11791725 0.78500003 7830120
-0.52106184 0.11791725 0.78500003 7698534
-0.51736033 0.11791725 0.78500003 7698536
-0.51365882 0.11791725 0.78500003 7961706
-0.50995725 0.11791725 0.78500003 7764327
-0.50625575 0.11791725 0.78500003 7633511
-0.50255424 0.11791725 0.78500003 7700074
-0.4988527 0.11791725 0.78500003 7633259
-0.49515116 0.11791725 0.78500003 7568236
-0.49144962 0.11791725 0.78500003 7436650
-0.48774812 0.11791725 0.78500003 7830638
-0.48404658 0.11791725 0.78500003 7699822
-0.48034504 0.11791725 0.78500003 7502958
-0.80757183 0.20293786 1.3510001 7700337
-0.80060834 0.20278764 1.35 7437165
-0.79365444 0.20263743 1.3490001 7897203
-0.78729349 0.20263743 1.3490001 7766130
-0.78151137 0.20278764 1.35 7831923
-0.77514565 0.20278764 1.35 7766130
-0.76934946 0.20293786 1.3510001 7634544
-0.76297909 0.20293786 1.3510001 7766132
-0.75716877 0.20308807 1.3520001 7897716
-0.75079364 0.20308807 1.3520001 7766132
-0.74496907 0.20323828 1.353 7831412
-0.73913515 0.2033885 1.3540001 7896951
-0.73329175 0.2035387 1.355 8028537
-0.72797543 0.20383914 1.3570001 7896181
-0.72317195 0.20428976 1.36 8158837
-0.71886724 0.20489062 1.3640001 7961458
-0.71556944 0.20579192 1.3700001 7039066
-0.71273273 0.20684341 1.3770001 6445644
-0.70982987 0.20789489 1.3840001 5787200
-0.70635289 0.20879617 1.3900001 4866100
-0.70281929 0.20969744 1.396 6968644
-0.69773287 0.21014808 1.399 8282946
-0.69212419 0.2104485 1.401 8479553
-0.68600732 0.21059872 1.4020001 8808004
-0.67939645 0.21059872 1.4020001 8808004
-0.67278558 0.21059872 1.4020001 8675903
