# .PCD v0.7 - Point Cloud Data file format
VERSION 0.7
FIELDS x y z rgb
SIZE 4 4 4 4
TYPE F F F U
COUNT 1 1 1 1
WIDTH 1135
HEIGHT 1
VIEWPOINT 0 0 0 1 0 0 0
POINTS 1135
DATA ascii
-0.64243865 -0.1567257 1.501 4934980
-0.63578421 -0.15683012 1.5020001 5000773
-0.62995756 -0.15714337 1.5050001 4935750
-0.62410253 -0.15745659 1.508 4935496
-0.61903763 -0.15797868 1.5130001 5198152
-0.61432987 -0.15860516 1.5190001 5198152
-0.6087662 -0.15902282 1.5230001 5198152
-0.60316473 -0.15944047 1.5270001 5198152
-0.59674501 -0.1596493 1.529 5066312
-0.5895353 -0.1596493 1.529 5066312
-0.58194476 -0.15954489 1.5280001 5198152
-0.57398742 -0.15933605 1.526 5263686
-0.56604898 -0.15912722 1.524 5000514
-0.55776274 -0.15881398 1.521 5132102
-0.54950476 -0.15850075 1.5180001 5066309
-0.54127508 -0.15818751 1.5150001 5066309
-0.53307372 -0.15787426 1.5120001 5000519
-0.52559626 -0.15776984 1.511 5000519
-0.51812834 -0.15766543 1.5100001 5000519
-0.51100814 -0.15766543 1.5100001 4934726
-0.50422168 -0.15776984 1.511 4934726
-0.49709684 -0.15776984 1.511 4934728
-0.49029627 -0.15787426 1.5120001 5000521
-0.48316675 -0.15787426 1.5120001 4869703
-0.47603717 -0.15787426 1.5120001 5066312
-0.46890762 -0.15787426 1.5120001 5066312
-0.46208346 -0.15797868 1.5130001 5263691
-0.4549492 -0.15797868 1.5130001 5066312
-0.44781491 -0.15797868 1.5130001 5197898
-0.44097185 -0.15808308 1.5140001 5067082
-0.43411946 -0.15818751 1.5150001 4935496
-0.42753941 -0.15839633 1.5170001 5067336
-0.42066339 -0.15850075 1.5180001 5198152
-0.41405031 -0.15870957 1.5200001 5329738
-0.4074184 -0.1589184 1.5220001 5263691
-0.40076762 -0.15912722 1.524 5067084
-0.39435622 -0.15944047 1.5270001 5132877
-0.38791656 -0.15975371 1.5300001 5132877
-0.38144863 -0.16006696 1.5330001 5067854
-0.37519646 -0.16048461 1.5370001 5002059
-0.36866722 -0.16079786 1.5400001 5002059
-0.36234432 -0.16121551 1.544 5002061
-0.35575375 -0.16152875 1.5470001 5067854
-0.34890965 -0.16173758 1.549 5002061
-0.34204671 -0.16194642 1.5510001 4804682
-0.33516487 -0.16215524 1.5530001 4935498
-0.32784197 -0.16215524 1.5530001 4804682
-0.32051909 -0.16215524 1.5530001 4738889
-0.31319621 -0.16215524 1.5530001 4804682
-0.30567634 -0.16205083 1.552 4738889
-0.29816592 -0.16194642 1.5510001 4935498
-0.29066494 -0.161842 1.5500001 5067854
-0.28317338 -0.16173758 1.549 5067854
-0.27569127 -0.16163318 1.5480001 5198670
-0.26839194 -0.16163318 1.5480001 5593428
-0.26109263 -0.16163318 1.5480001 5790807
-0.25379333 -0.16163318 1.5480001 5725014
-0.24665321 -0.16173758 1.549 5987668
-0.23950371 -0.161842 1.5500001 6185047
-0.23264439 -0.16215524 1.5530001 6711134
-0.22575676 -0.16246849 1.5560001 7237224
-0.21912158 -0.16299056 1.5610001 6776930
-0.21230361 -0.1634082 1.5650001 7436400
-0.20557883 -0.16393028 1.5700001 7896951
-0.19868068 -0.16434795 1.5740001 8160123
-0.1916233 -0.16466117 1.577 8291711
-0.18453763 -0.16497442 1.58 8686469
-0.17731158 -0.16518325 1.582 9211268
-0.17017405 -0.1654965 1.585 9342082
-0.16300823 -0.16580974 1.5880001 8487025
-0.15571615 -0.16601856 1.59 8750195
-0.14849846 -0.16633181 1.5930001 8881781
-0.14107546 -0.16643623 1.5940001 7960166
-0.13364303 -0.16654064 1.595 8421230
-0.12620117 -0.16664505 1.5960001 8223853
-0.11874988 -0.16674948 1.5970001 8618611
-0.11128914 -0.16685387 1.598 8354156
-0.10407871 -0.16737595 1.603 8354926
-0.096700691 -0.16768919 1.6060001 8289385
-0.089571856 -0.1685245 1.6140001 8092006
-0.082367584 -0.16935982 1.6220001 7828834
-0.075087868 -0.17019513 1.6300001 6907739
-0.067525946 -0.17050838 1.6330001 6579805
-0.059899099 -0.17071721 1.6350001 4276798
-0.052189551 -0.17071721 1.6350001 4739149
-0.044480007 -0.17071721 1.6350001 5529686
-0.033374533 -0.15495066 1.4840001 4871756
-0.025328316 -0.14879023 1.4250001 5659991
-0.011570219 -0.092510976 0.88600004 6449507
-0.0071171061 -0.089065306 0.85300004 7632493
-0.0030949384 -0.089065306 0.85300004 7961458
0.00092722941 -0.089065306 0.85300004 8422009
0.0051930957 -0.093450703 0.89500004 8750974
0.009371236 -0.093033046 0.89100003 8948353
0.01354212 -0.092824221 0.88900006 9935766
0.017694142 -0.092615388 0.88700002 10856615
0.021802641 -0.092302151 0.88400006 11186350
0.025941605 -0.092197731 0.88300002 11317936
0.030037044 -0.091988906 0.88100004 11317936
0.034152433 -0.091884494 0.88000005 11450035
0.038258389 -0.091780081 0.87900007 11515828
0.042403154 -0.091780081 0.87900007 11515828
0.04654792 -0.091780081 0.87900007 11581621
0.050750356 -0.091884494 0.88000005 11581621
0.054962222 -0.091988906 0.88100004 11713207
0.059250619 -0.092197731 0.88300002 11515828
0.063486069 -0.092302151 0.88400006 11647414
0.067807473 -0.092510976 0.88600004 11647414
0.072147749 -0.092719808 0.88800007 11647414
0.076420911 -0.092824221 0.88900006 11713207
0.080794178 -0.093033046 0.89100003 11844793
0.084709354 -0.092719808 0.88800007 11713207
0.088696338 -0.092510976 0.88600004 11910586
0.09287411 -0.092510976 0.88600004 12042172
0.097051881 -0.092510976 0.88600004 12107967
0.10122966 -0.092510976 0.88600004 12305346
0.10540743 -0.092510976 0.88600004 12173760
0.10958521 -0.092510976 0.88600004 12305346
0.11376298 -0.092510976 0.88600004 12371139
0.11794075 -0.092510976 0.88600004 12568518
0.12211853 -0.092510976 0.88600004 12568518
0.1262963 -0.092510976 0.88600004 12765897
0.13047408 -0.092510976 0.88600004 12765897
0.13465184 -0.092510976 0.88600004 12765897
0.13882962 -0.092510976 0.88600004 12897483
0.1430074 -0.092510976 0.88600004 12765897
0.14718516 -0.092510976 0.88600004 12831690
0.15136294 -0.092510976 0.88600004 12897483
0.1555407 -0.092510976 0.88600004 12897483
0.15971848 -0.092510976 0.88600004 12634311
0.16389625 -0.092510976 0.88600004 12502725
0.16807403 -0.092510976 0.88600004 12305346
0.17225181 -0.092510976 0.88600004 12173760
0.17642958 -0.092510976 0.88600004 12042174
0.18060735 -0.092510976 0.88600004 12107454
0.18478513 -0.092510976 0.88600004 12041661
0.18896291 -0.092510976 0.88600004 12107454
0.19597457 -0.09386836 0.89900005 12107454
0.1995455 -0.093555115 0.89600003 12172477
0.20308818 -0.093241878 0.89300007 12172477
0.20683467 -0.093033046 0.89100003 12106684
0.21127288 -0.093137458 0.89200002 12304063
0.21523738 -0.093033046 0.89100003 12106684
0.21943873 -0.093033046 0.89100003 12238270
0.22338907 -0.092928633 0.89000005 12238270
0.22784142 -0.093033046 0.89100003 12172477
0.23256364 -0.093241878 0.89300007 12369856
0.23703957 -0.09334629 0.89400005 12501440
0.23909618 -0.092510976 0.88600004 12567233
0.24327396 -0.092510976 0.88600004 12633026
0.24745174 -0.092510976 0.88600004 12698049
0.25162947 -0.092510976 0.88600004 12632256
0.26042682 -0.094181605 0.90200007 12632256
0.26497346 -0.094286017 0.90300006 12632256
0.26893327 -0.094181605 0.90200007 12501440
0.27348936 -0.094286017 0.90300006 12501440
0.27713209 -0.094077185 0.90100002 12501440
0.28075603 -0.09386836 0.89900005 12501440
0.28436103 -0.093659528 0.89700001 12632256
0.28826895 -0.093555115 0.89600003 12698049
0.29216745 -0.093450703 0.89500004 12763842
0.29605651 -0.09334629 0.89400005 12698049
0.29993615 -0.093241878 0.89300007 12763842
0.3038063 -0.093137458 0.89200002 12698049
0.3080124 -0.093137458 0.89200002 12829635
0.31221846 -0.093137458 0.89200002 12698049
0.31677926 -0.093241878 0.89300007 12763842
0.32099003 -0.093241878 0.89300007 12763842
0.32556498 -0.09334629 0.89400005 12895171
0.33014935 -0.093450703 0.89500004 12829378
0.33474317 -0.093555115 0.89600003 12895171
0.3389681 -0.093555115 0.89600003 12895171
0.34357604 -0.093659528 0.89700001 12895171
0.34780568 -0.093659528 0.89700001 12829378
0.35164285 -0.093555115 0.89600003 12895171
0.35586777 -0.093555115 0.89600003 12895171
0.3600927 -0.093555115 0.89600003 12829378
0.36431766 -0.093555115 0.89600003 12829378
0.36854258 -0.093555115 0.89600003 12829378
0.37276751 -0.093555115 0.89600003 12763585
0.37741318 -0.093659528 0.89700001 12829378
0.38164279 -0.093659528 0.89700001 12763585
0.38630265 -0.093763947 0.89800006 12829378
0.3909719 -0.09386836 0.89900005 12763585
0.39521098 -0.09386836 0.89900005 12828608
0.39989436 -0.093972772 0.90000004 12894401
0.40413815 -0.093972772 0.90000004 12828608
0.40838194 -0.093972772 0.90000004 12960194
0.41308421 -0.094077185 0.90100002 12960194
0.41733268 -0.094077185 0.90100002 12894401
0.42204911 -0.094181605 0.90200007 12894401
0.42677495 -0.094286017 0.90300006 12894401
0.43151021 -0.09439043 0.90400004 12894401
0.43625492 -0.094494842 0.90500003 12960194
0.44100904 -0.094599254 0.90600002 12894401
0.44577262 -0.094703674 0.90700006 12763585
0.45054558 -0.094808087 0.90800005 12829378
0.45532802 -0.094912499 0.90900004 12829378
0.4606255 -0.095121332 0.91100007 12895171
0.46543151 -0.095225744 0.91200006 13025987
0.47076198 -0.095434569 0.91400003 12894401
0.47611135 -0.095643401 0.91600007 12960194
0.48095506 -0.095747814 0.91700006 12697022
0.48527902 -0.095747814 0.91700006 12631229
0.48853511 -0.095538981 0.91500002 12697022
0.49177238 -0.095330156 0.91300005 12499643
0.4949908 -0.095121332 0.91100007 12368057
0.49819025 -0.094912499 0.90900004 9076615
0.80620921 -0.14972995 1.434 6116439
0.82317561 -0.15160941 1.452 8944494
0.92034155 -0.16810685 1.6100001 10519665
0.96078545 -0.17405845 1.6670001 10518636
0.985497 -0.17708647 1.6960001 10519406
1.0046241 -0.17907034 1.715 10256234
1.020978 -0.18053214 1.7290001 10124648
1.038059 -0.18209834 1.7440001 10256234
1.0564814 -0.18387339 1.761 10058851
1.0750641 -0.18564844 1.7780001 10321253
1.0913696 -0.18700582 1.7910001 10190439
1.1047275 -0.18784113 1.7990001 9993060
1.1169231 -0.18846762 1.8050001 9729888
1.1279281 -0.18888527 1.8090001 9926497
1.1383429 -0.18919851 1.812 9465944
1.1481529 -0.18940735 1.8140001 9203544
1.1579818 -0.18961617 1.8160001 9138262
1.1671871 -0.18972059 1.817 8940885
1.176402 -0.189825 1.8180001 8940885
1.1849744 -0.189825 1.8180001 8677713
1.1935469 -0.189825 1.8180001 8350803
-15.511471 -2.132858 21.393002 9016701
-14.868167 -2.0577848 20.640001 8753275
-19.031055 -2.6512918 26.593 8885633
-19.874655 -2.7871816 27.956001 8556668
-20.586756 -2.9063218 29.151001 8622974
-18.627514 -2.6474037 26.554001 8688767
-0.69190282 -0.099000975 0.99300003 8950143
-0.68722051 -0.099000975 0.99300003 9213828
-0.68253821 -0.099000975 0.99300003 9081990
-0.67785585 -0.099000975 0.99300003 9213578
-0.67317355 -0.099000975 0.99300003 8885383
-0.66849124 -0.099000975 0.99300003 9214348
-0.66380894 -0.099000975 0.99300003 9345934
-0.65912658 -0.099000975 0.99300003 9017228
-0.87325156 -0.132101 1.325 9280400
-0.87092984 -0.13269919 1.3310001 9083021
-0.86205518 -0.13230039 1.327 9411986
-0.85773265 -0.13259949 1.33 9477266
-0.85082114 -0.1324998 1.3290001 9936788
-0.84328347 -0.13230039 1.327 9805202
-0.8363955 -0.1322007 1.3260001 10264983
-0.82951689 -0.132101 1.325 10922141
-0.82326913 -0.132101 1.325 10067602
-0.81702131 -0.132101 1.325 10330004
-0.81077349 -0.132101 1.325 10461590
-0.80513293 -0.1322007 1.3260001 10395799
-0.80068785 -0.1324998 1.3290001 10198420
-0.7962144 -0.1327989 1.332 10198420
-0.79230577 -0.1331977 1.3360001 10264983
-0.78953612 -0.13379587 1.342 10001811
-0.78729349 -0.13449378 1.3490001 9870225
-0.78556371 -0.13529137 1.3570001 9672846
-0.78433263 -0.13618866 1.3660001 7106149
-0.78244722 -0.13698624 1.3740001 6776673
-0.77992159 -0.13768414 1.381 6381915
-0.77677 -0.13828233 1.3870001 5856082
-0.77300644 -0.13878083 1.3920001 6711134
-0.76919574 -0.13927932 1.3970001 5855055
-0.76533788 -0.13977781 1.4020001 5198670
-0.76197404 -0.14037602 1.4080001 4673096
-0.75909007 -0.1410739 1.4150001 3817017
-0.75614011 -0.14177179 1.4220001 2633260
-0.75312406 -0.14246967 1.429 2567467
-0.75004214 -0.14316759 1.4360001 2370601
-0.74689418 -0.14386547 1.4430001 2370601
-0.74368012 -0.14456336 1.45 2106397
-0.74141645 -0.14546065 1.4590001 2106397
-0.73906785 -0.14635794 1.4680001 1974813
-0.73663437 -0.14725523 1.4770001 2171420
-0.73461008 -0.14825222 1.4870001 2237213
-0.73200214 -0.14914951 1.4960001 2105627
-0.72930932 -0.1500468 1.5050001 2106397
-0.72509199 -0.15064499 1.511 2171420
-0.72034293 -0.15114348 1.516 2171420
-0.71460587 -0.15144257 1.5190001 2171420
-0.70837474 -0.15164198 1.521 2237213
-0.70166379 -0.15174168 1.5220001 2171420
-0.69403076 -0.15164198 1.521 2369569
-0.68685877 -0.15164198 1.521 2500385
-0.67923993 -0.15154228 1.5200001 2434592
-0.67163044 -0.15144257 1.5190001 2631973
-0.66403043 -0.15134288 1.5180001 2697764
-0.65643984 -0.15124318 1.5170001 2697764
-0.64885873 -0.15114348 1.516 2697764
-0.64213359 -0.15124318 1.5170001 2829350
-0.63539904 -0.15134288 1.5180001 2566948
-0.62948275 -0.15164198 1.521 2764327
-0.6235382 -0.15194108 1.524 2830120
-0.61837417 -0.15243956 1.529 2895913
-0.61276335 -0.15283836 1.5330001 3026729
-0.60671967 -0.15313746 1.536 3092524
-0.59986728 -0.15323716 1.5370001 3159085
-0.59300542 -0.15333687 1.5380001 3356464
-0.58537239 -0.15323716 1.5370001 3619636
-0.57737267 -0.15303777 1.5350001 3948853
-0.56976324 -0.15293807 1.534 3948085
-0.56179649 -0.15273866 1.5320001 3619890
-0.55348665 -0.15243956 1.529 4211257
-0.54556245 -0.15224017 1.5270001 4539968
-0.53765702 -0.15204078 1.5250001 4672578
-0.52977043 -0.15184139 1.5230001 4146234
-0.52224588 -0.15174168 1.5220001 4343613
-0.51506913 -0.15174168 1.5220001 4540992
-0.5075587 -0.15164198 1.521 4409406
-0.50038671 -0.15164198 1.521 4606531
-0.49289045 -0.15154228 1.5200001 4738117
-0.48540363 -0.15144257 1.5190001 4803910
-0.47792622 -0.15134288 1.5180001 4804164
-0.47076836 -0.15134288 1.5180001 4804164
-0.46330509 -0.15124318 1.5170001 4804164
-0.45615193 -0.15124318 1.5170001 4869957
-0.44929481 -0.15134288 1.5180001 4804164
-0.44213694 -0.15134288 1.5180001 4869957
-0.43526563 -0.15144257 1.5190001 4869957
-0.4283849 -0.15154228 1.5200001 4935750
-0.42149472 -0.15164198 1.521 5067336
-0.41486755 -0.15184139 1.5230001 4869957
-0.40822145 -0.15204078 1.5250001 4738117
-0.40155652 -0.15224017 1.5270001 4869703
-0.39513099 -0.15253927 1.5300001 5067082
-0.38867718 -0.15283836 1.5330001 4869703
-0.38219506 -0.15313746 1.536 4803910
-0.37568465 -0.15343656 1.539 4869703
-0.36914599 -0.15373565 1.5420001 4935496
-0.36257899 -0.15403475 1.5450001 4935496
-0.35575375 -0.15423414 1.5470001 5067082
-0.34890965 -0.15443355 1.549 4935750
-0.34204671 -0.15463296 1.5510001 4935750
-0.33494905 -0.15473264 1.552 4935496
-0.32784197 -0.15483235 1.5530001 4869703
-0.32051909 -0.15483235 1.5530001 4935496
-0.31299451 -0.15473264 1.552 5197898
-0.30547941 -0.15463296 1.5510001 5329484
-0.29816592 -0.15463296 1.5510001 4935496
-0.29066494 -0.15453325 1.5500001 5132875
-0.28317338 -0.15443355 1.549 5198668
-0.27586934 -0.15443355 1.549 5330254
-0.26839194 -0.15433384 1.5480001 5264461
-0.26109263 -0.15433384 1.5480001 5526863
-0.25379333 -0.15433384 1.5480001 5526863
-0.24665321 -0.15443355 1.549 5790037
-0.23950371 -0.15453325 1.5500001 5855830
-0.23249458 -0.15473264 1.552 5790037
-0.22561167 -0.15503174 1.5550001 5921623
-0.21884082 -0.15543053 1.559 5855830
-0.21216796 -0.15592903 1.5640001 5856600
-0.20531695 -0.15632783 1.5680001 5659221
-0.198302 -0.15662692 1.5710001 5987416
-0.19125879 -0.15692602 1.5740001 5855830
-0.18418723 -0.15722512 1.577 5724244
-0.17697535 -0.15742452 1.5790001 5855830
-0.1697446 -0.15762392 1.5810001 5987414
-0.16259763 -0.15792301 1.5840001 5921621
-0.15542236 -0.15822211 1.5870001 5987414
-0.14812559 -0.1584215 1.5890001 5856082
-0.14080994 -0.15862089 1.5910001 5856082
-0.13339166 -0.1587206 1.5920001 5790289
-0.12596394 -0.1588203 1.5930001 5724239
-0.11845244 -0.1588203 1.5930001 5724239
-0.11101058 -0.15892 1.5940001 5461067
-0.10342944 -0.1588203 1.5930001 5460297
-0.096339412 -0.15951818 1.6 5394504
-0.089349873 -0.16051519 1.6100001 5197125
-0.082012117 -0.16101368 1.6150001 4999744
-0.074396871 -0.16101368 1.6150001 4539193
-0.066781633 -0.16101368 1.6150001 4277050
-0.05916639 -0.16101368 1.6150001 4145980
-0.051551148 -0.16101368 1.6150001 3948601
-0.04393591 -0.16101368 1.6150001 4015164
-0.033374533 -0.14795312 1.4840001 4015677
-0.025328316 -0.14207089 1.4250001 3949886
-0.011570219 -0.088333197 0.88600004 5725014
-0.0071171061 -0.085043132 0.85300004 6317149
-0.0030949384 -0.085043132 0.85300004 6776930
0.00092722941 -0.085043132 0.85300004 7369067
0.0051988978 -0.089330181 0.89600003 7830390
0.0093817534 -0.088931389 0.89200002 8290939
0.013557353 -0.088731997 0.89000005 10198168
0.017694142 -0.088432893 0.88700002 10791075
0.021827305 -0.088233501 0.88500005 11251373
0.025941605 -0.088034101 0.88300002 11449522
0.030037044 -0.087834701 0.88100004 11581108
0.034152433 -0.087735005 0.88000005 11449522
0.038258389 -0.087635309 0.87900007 11450035
0.042403154 -0.087635309 0.87900007 11581621
0.046600875 -0.087735005 0.88000005 11515828
0.050750356 -0.087735005 0.88000005 11647414
0.054962222 -0.087834701 0.88100004 11581621
0.059183519 -0.087934397 0.88200003 11646901
0.063486069 -0.088133805 0.88400006 11778487
0.067730941 -0.088233501 0.88500005 11712694
0.072066493 -0.088432893 0.88700002 11778487
0.076248981 -0.088432893 0.88700002 11647414
0.079796724 -0.087735005 0.88000005 11844793
0.083946206 -0.087735005 0.88000005 11844793
0.088095687 -0.087735005 0.88000005 11976379
0.092245169 -0.087735005 0.88000005 12042172
0.096394651 -0.087735005 0.88000005 12305346
0.10054413 -0.087735005 0.88000005 12371139
0.10469361 -0.087735005 0.88000005 12305348
0.1088431 -0.087735005 0.88000005 12371141
0.11299258 -0.087735005 0.88000005 12371141
0.11714205 -0.087735005 0.88000005 12568520
0.12129154 -0.087735005 0.88000005 12568520
0.12544103 -0.087735005 0.88000005 12831692
0.12959051 -0.087735005 0.88000005 12765899
0.13373998 -0.087735005 0.88000005 12897485
0.13788946 -0.087735005 0.88000005 12963278
0.14203896 -0.087735005 0.88000005 12897485
0.14618842 -0.087735005 0.88000005 12765899
0.1503379 -0.087735005 0.88000005 12963278
0.15448739 -0.087735005 0.88000005 12897485
0.15863688 -0.087735005 0.88000005 12897483
0.16278635 -0.087735005 0.88000005 12502725
0.16693583 -0.087735005 0.88000005 12305346
0.17108531 -0.087735005 0.88000005 12173247
0.17523481 -0.087735005 0.88000005 12173247
0.17938428 -0.087735005 0.88000005 12107454
0.18353376 -0.087735005 0.88000005 12107454
0.18768324 -0.087735005 0.88000005 12238270
0.19183274 -0.087735005 0.88000005 12172477
0.19887739 -0.089031093 0.89300007 12106684
0.20308818 -0.089031093 0.89300007 11975868
0.20683467 -0.088831693 0.89100003 12041661
0.21103603 -0.088831693 0.89100003 11975868
0.2149958 -0.088731997 0.89000005 12238270
0.21894616 -0.088632293 0.88900006 12238270
0.22313808 -0.088632293 0.88900006 12172477
0.22733 -0.088632293 0.88900006 12369856
0.23152192 -0.088632293 0.88900006 12304063
0.23650926 -0.088931389 0.89200002 12501442
0.23909618 -0.088333197 0.88600004 12501442
0.24327396 -0.088333197 0.88600004 12501442
0.24745174 -0.088333197 0.88600004 12501440
0.25162947 -0.088333197 0.88600004 12501440
0.25580725 -0.088333197 0.88600004 12501440
0.26438659 -0.089828677 0.90100002 12369854
0.26833695 -0.089728981 0.90000004 12304061
0.27227786 -0.089629285 0.89900005 12501440
0.27682453 -0.089728981 0.90000004 12369854
0.28075603 -0.089629285 0.89900005 12500670
0.28436103 -0.089429885 0.89700001 12632256
0.28826895 -0.089330181 0.89600003 12632256
0.29216745 -0.089230485 0.89500004 12632256
0.29605651 -0.089130789 0.89400005 12698049
0.29993615 -0.089031093 0.89300007 12632256
0.3038063 -0.088931389 0.89200002 12763842
0.3080124 -0.088931389 0.89200002 12632256
0.31256849 -0.089031093 0.89300007 12763842
0.31677926 -0.089031093 0.89300007 12763842
0.32134947 -0.089130789 0.89400005 12829635
0.32556498 -0.089130789 0.89400005 12895171
0.33014935 -0.089230485 0.89500004 12895171
0.33474317 -0.089330181 0.89600003 12895171
0.3389681 -0.089330181 0.89600003 13026757
0.34319302 -0.089330181 0.89600003 12895171
0.34741795 -0.089330181 0.89600003 12763585
0.35125041 -0.089230485 0.89500004 12829378
0.35547063 -0.089230485 0.89500004 12829378
0.35928893 -0.089130789 0.89400005 12895171
0.36350444 -0.089130789 0.89400005 12895171
0.36771995 -0.089130789 0.89400005 12895171
0.37235147 -0.089230485 0.89500004 12829378
0.37657169 -0.089230485 0.89500004 12960194
0.38121733 -0.089330181 0.89600003 12697792
0.38587245 -0.089429885 0.89700001 12697792
0.39053699 -0.089529589 0.89800006 12763585
0.39477137 -0.089529589 0.89800006 12763585
0.39945003 -0.089629285 0.89900005 12829378
0.40368912 -0.089629285 0.89900005 12829378
0.40838194 -0.089728981 0.90000004 12763585
0.41262573 -0.089728981 0.90000004 12697792
0.41733268 -0.089828677 0.90100002 12894401
0.42204911 -0.089928381 0.90200007 12829378
0.42677495 -0.090028077 0.90300006 12763585
0.43198755 -0.090227477 0.90500003 12960194
0.43673697 -0.090327173 0.90600002 12894401
0.44149584 -0.090426877 0.90700006 12894401
0.44577262 -0.090426877 0.90700006 13025987
0.45054558 -0.090526573 0.90800005 12829378
0.45532802 -0.09062627 0.90900004 12829378
0.46011984 -0.090725966 0.91000003 12895171
0.46543151 -0.090925373 0.91200006 12894401
0.47076198 -0.091124766 0.91400003 12697792
0.47559154 -0.091224462 0.91500002 12763585
0.48043057 -0.091324165 0.91600007 12697792
0.48422059 -0.091224462 0.91500002 12631229
0.4880012 -0.091124766 0.91400003 12631229
0.49123377 -0.090925373 0.91200006 12499643
0.49444741 -0.090725966 0.91000003 12236471
0.49709412 -0.090426877 0.90700006 8681857
0.79552722 -0.1410739 1.4150001 5590615
0.81070328 -0.14256938 1.4300001 6575694
0.85345954 -0.14885041 1.493 9269600
0.95156378 -0.16460283 1.651 9597280
0.97038913 -0.16649711 1.6700001 9005913
0.98705053 -0.16799259 1.6850001 9203807
1.0014914 -0.16908929 1.6960001 9401184
1.0184169 -0.17058477 1.7110001 10124644
1.0378835 -0.17247905 1.7300001 10190437
1.0593432 -0.17467242 1.7520001 9993058
1.0773543 -0.17626761 1.7680001 9927267
1.0912176 -0.17716488 1.7770001 9993058
1.1033096 -0.17776309 1.7830001 10190437
1.1148344 -0.17826158 1.7880001 10058851
1.1251502 -0.17856067 1.7910001 10189407
1.135494 -0.17885977 1.794 9268817
1.1452287 -0.17905918 1.7960001 9334612
1.1543398 -0.17915887 1.7970001 9663577
1.1634603 -0.17925857 1.7980001 9400405
1.1725903 -0.17935827 1.7990001 9597784
1.1810732 -0.17935827 1.7990001 9532761
-15.486094 -2.0286589 21.358002 8754045
-14.868167 -1.9604605 20.640001 8622461
-14.770843 -1.9604605 20.640001 8753277
-19.820623 -2.6481414 27.880001 8754045
-19.689161 -2.6481414 27.880001 8885631
-18.627514 -2.5221932 26.554001 8753275
-0.69190282 -0.094318666 0.99300003 8885633
-0.68722051 -0.094318666 0.99300003 8885379
-0.68253821 -0.094318666 0.99300003 8951172
-0.67785585 -0.094318666 0.99300003 9081990
-0.67317355 -0.094318666 0.99300003 9147783
-0.66849124 -0.094318666 0.99300003 9213578
-0.66380894 -0.094318666 0.99300003 9542030
-0.65912658 -0.094318666 0.99300003 9739407
-0.8811602 -0.126993 1.337 9411725
-0.87027544 -0.12632813 1.33 9345934
-0.8633545 -0.12623315 1.3290001 9345934
-0.85644287 -0.12613817 1.3280001 9543313
-0.85018092 -0.12613817 1.3280001 9936788
-0.84328347 -0.12604317 1.327 9936788
-0.8363955 -0.12594819 1.3260001 10134167
-0.82951689 -0.12585321 1.325 10856348
-0.82326913 -0.12585321 1.325 9869455
-0.8164047 -0.12575823 1.3240001 10330006
-0.81077349 -0.12585321 1.325 10198420
-0.80513293 -0.12594819 1.3260001 10067350
-0.80008531 -0.12613817 1.3280001 10001811
-0.79561669 -0.12642311 1.3310001 10198166
-0.79230577 -0.12689804 1.3360001 10132373
-0.78894782 -0.12737295 1.3410001 10132627
-0.78729349 -0.12813282 1.3490001 10001041
-0.78556371 -0.12889269 1.3570001 9672076
-0.7837584 -0.12965254 1.365 7566700
-0.7818777 -0.13041241 1.373 6775652
-0.77992159 -0.13117228 1.381 6710882
-0.77677 -0.13174219 1.3870001 5921364
-0.77300644 -0.13221711 1.3920001 6513753
-0.76919574 -0.13269202 1.3970001 5461065
-0.7658838 -0.13326193 1.4030001 5330254
-0.7630564 -0.13392681 1.4100001 4738889
-0.76069945 -0.13468668 1.4180001 3882808
-0.7582671 -0.13544655 1.4260001 2961706
-0.75575924 -0.1362064 1.434 2566950
-0.75265366 -0.13687131 1.4410001 2434594
-0.74999976 -0.13763118 1.4490001 2368801
-0.74727029 -0.13839103 1.457 1973790
-0.7449736 -0.13924588 1.4660001 1974560
-0.74309546 -0.14019573 1.4760001 2039836
-0.74212044 -0.14133552 1.488 1908248
-0.7405383 -0.14238034 1.4990001 2039834
-0.73885244 -0.14342517 1.5100001 2039577
-0.73609358 -0.14428002 1.5190001 2039577
-0.73277003 -0.14503989 1.5270001 1908248
-0.72889584 -0.14570476 1.534 1645846
-0.72354436 -0.14608471 1.5380001 1843225
-0.71768934 -0.14636967 1.5410001 1843225
-0.71134514 -0.14655963 1.5430001 1974811
-0.70452565 -0.14665461 1.544 1975581
-0.69724518 -0.14665461 1.544 1974813
-0.68996471 -0.14665461 1.544 1974813
-0.68224216 -0.14655963 1.5430001 2237985
-0.67452896 -0.14646463 1.5420001 2040606
-0.66682523 -0.14636967 1.5410001 2040606
-0.65913093 -0.14627467 1.5400001 2040606
-0.65144598 -0.14617969 1.539 2040606
-0.64460772 -0.14627467 1.5400001 1777434
-0.63775998 -0.14636967 1.5410001 1974811
-0.63131195 -0.14655963 1.5430001 2105627
-0.62565392 -0.14693956 1.5470001 2237213
-0.61955845 -0.1472245 1.5500001 2171420
-0.61303973 -0.14741448 1.552 2105627
-0.60611188 -0.14750946 1.5530001 2105627
-0.59878898 -0.14750946 1.5530001 2237213
-0.5910852 -0.14741448 1.552 2237215
-0.58339089 -0.1473195 1.5510001 2040606
-0.57570601 -0.1472245 1.5500001 2105629
-0.56803054 -0.14712952 1.549 2171420
-0.56000251 -0.14693956 1.5470001 2237213
-0.55199343 -0.14674959 1.5450001 2237985
-0.54435569 -0.14665461 1.544 2303776
-0.53637952 -0.14646463 1.5420001 2237983
-0.52842224 -0.14627467 1.5400001 2106397
-0.52082223 -0.14617969 1.539 2500385
-0.51289791 -0.14598972 1.5370001 2434592
-0.5053215 -0.14589474 1.536 2434592
-0.49743021 -0.14570476 1.534 2698536
-0.48955783 -0.1455148 1.5320001 2369571
-0.48170429 -0.14532484 1.5300001 2435364
-0.47417971 -0.14522985 1.529 2501157
-0.46666461 -0.14513487 1.5280001 2566948
-0.45945957 -0.14513487 1.5280001 2765097
-0.45195857 -0.14503989 1.5270001 2896683
-0.44504955 -0.14513487 1.5280001 2699304
-0.43784457 -0.14513487 1.5280001 3357234
-0.43092138 -0.14522985 1.529 3225648
-0.42398879 -0.14532484 1.5300001 4145980
-0.41731912 -0.1455148 1.5320001 3751222
-0.41063061 -0.14570476 1.534 3948601
-0.40418625 -0.14598972 1.5370001 4211773
-0.39771354 -0.14627467 1.5400001 4343359
-0.39121258 -0.14655963 1.5430001 4343359
-0.38443449 -0.14674959 1.5450001 4672324
-0.37788168 -0.14703454 1.5480001 4606785
-0.37106115 -0.1472245 1.5500001 4606785
-0.36422175 -0.14741448 1.552 4804164
-0.35736349 -0.14760444 1.554 4672578
-0.3504864 -0.14779441 1.5560001 4738371
-0.34359044 -0.14798437 1.5580001 4672578
-0.33645976 -0.14807935 1.559 4804164
-0.32910857 -0.14807935 1.559 4672578
-0.32175741 -0.14807935 1.559 4869703
-0.31420454 -0.14798437 1.5580001 4935496
-0.30666113 -0.14788939 1.557 5067082
-0.29912713 -0.14779441 1.5560001 4935498
-0.2917901 -0.14779441 1.5560001 5067084
-0.28427026 -0.14769943 1.5550001 5067082
-0.27693793 -0.14769943 1.5550001 5132875
-0.26943222 -0.14760444 1.554 5198668
-0.2621046 -0.14760444 1.554 5395277
-0.25461307 -0.14750946 1.5530001 5461070
-0.24744938 -0.14760444 1.554 5658449
-0.24012178 -0.14760444 1.554 5461070
-0.23309381 -0.14779441 1.5560001 5526863
-0.22619201 -0.14807935 1.559 5526863
-0.21926194 -0.14836431 1.562 5658451
-0.21243927 -0.14874424 1.5660001 5526865
-0.20557883 -0.14912418 1.5700001 5396049
-0.19855446 -0.14940913 1.5730001 5527635
-0.19138028 -0.14959909 1.575 5527635
-0.18430404 -0.14988405 1.5780001 5396049
-0.17708743 -0.15007401 1.58 5264463
-0.16985194 -0.15026398 1.582 5396049
-0.16270027 -0.15054892 1.585 5659219
-0.15542236 -0.15073891 1.5870001 5330254
-0.1482188 -0.15102385 1.59 5396301
-0.14089845 -0.15121382 1.5920001 5330508
-0.13339166 -0.15121382 1.5920001 5658703
-0.12588488 -0.15121382 1.5920001 5329738
-0.11837809 -0.15121382 1.5920001 5198152
-0.11080165 -0.15111883 1.5910001 5066566
-0.10316972 -0.15092887 1.5890001 4869187
-0.095797509 -0.15111883 1.5910001 4737344
-0.087851457 -0.15035896 1.5830001 4474429
-0.080387108 -0.15035896 1.5830001 4342843
-0.072922751 -0.15035896 1.5830001 4079671
-0.065458402 -0.15035896 1.5830001 4013878
-0.057994053 -0.15035896 1.5830001 3817269
-0.0505297 -0.15035896 1.5830001 3751992
-0.043065351 -0.15035896 1.5830001 3620406
-0.033374533 -0.1409556 1.4840001 3554613
-0.025328316 -0.13535157 1.4250001 3686199
-0.011570219 -0.084155425 0.88600004 5790807
-0.0071171061 -0.081020974 0.85300004 6382172
-0.0030949384 -0.081020974 0.85300004 6776930
0.00097940641 -0.085580178 0.90100002 7171688
0.0052047004 -0.085200243 0.89700001 7501425
0.0093922717 -0.084820315 0.89300007 7961976
0.013572586 -0.084630348 0.89100003 10068122
0.017714093 -0.0843454 0.88800007 10660259
0.021827305 -0.084060445 0.88500005 11252396
0.025941605 -0.083870478 0.88300002 11449522
0.030037044 -0.083680511 0.88100004 11449522
0.034152433 -0.083585531 0.88000005 11449522
0.038301915 -0.083585531 0.88000005 11581108
0.042451397 -0.083585531 0.88000005 11449522
0.046600875 -0.083585531 0.88000005 11581621
0.050808024 -0.083680511 0.88100004 11647414
0.054962222 -0.083680511 0.88100004 11647414
0.059183519 -0.083775491 0.88200003 11581621
0.063414253 -0.083870478 0.88300002 11647414
0.067654409 -0.083965465 0.88400006 11647414
0.071579009 -0.083680511 0.88100004 11713209
0.075647242 -0.083585531 0.88000005 11713209
0.079978079 -0.083775491 0.88200003 11844795
0.083946206 -0.083585531 0.88000005 11910588
0.088095687 -0.083585531 0.88000005 11976381
0.092245169 -0.083585531 0.88000005 12042174
0.096394651 -0.083585531 0.88000005 12173760
0.10054413 -0.083585531 0.88000005 12371139
0.10469361 -0.083585531 0.88000005 12436934
0.1088431 -0.083585531 0.88000005 12371141
0.11299258 -0.083585531 0.88000005 12436934
0.11714205 -0.083585531 0.88000005 12568520
0.12129154 -0.083585531 0.88000005 12765899
0.12544103 -0.083585531 0.88000005 12831692
0.12959051 -0.083585531 0.88000005 12897485
0.13373998 -0.083585531 0.88000005 12897485
0.13788946 -0.083585531 0.88000005 12963278
0.14203896 -0.083585531 0.88000005 12897485
0.14618842 -0.083585531 0.88000005 12963278
0.1503379 -0.083585531 0.88000005 13029071
0.15448739 -0.083585531 0.88000005 12831692
0.15863688 -0.083585531 0.88000005 12765899
0.16278635 -0.083585531 0.88000005 12371141
0.16693583 -0.083585531 0.88000005 12173760
0.17108531 -0.083585531 0.88000005 12107967
0.17523481 -0.083585531 0.88000005 12173247
0.17938428 -0.083585531 0.88000005 12173247
0.18353376 -0.083585531 0.88000005 11975868
0.18768324 -0.083585531 0.88000005 12107454
0.19183274 -0.083585531 0.88000005 12041661
0.19887739 -0.084820315 0.89300007 12041661
0.20286074 -0.084725328 0.89200002 12041661
0.20660254 -0.08453536 0.89000005 11975868
0.21079919 -0.08453536 0.89000005 12106684
0.21475424 -0.08444038 0.88900006 12172477
0.21869989 -0.0843454 0.88800007 12238270
0.22288708 -0.0843454 0.88800007 12303293
0.22707428 -0.0843454 0.88800007 12369086
0.23126149 -0.0843454 0.88800007 12369086
0.23597899 -0.08453536 0.89000005 12500670
0.23882632 -0.084060445 0.88500005 12698049
0.24299939 -0.084060445 0.88500005 12632256
0.24717245 -0.084060445 0.88500005 12632256
0.25134549 -0.084060445 0.88500005 12632256
0.25551856 -0.084060445 0.88500005 12632256
0.26556033 -0.085960113 0.90500003 12500670
0.26833695 -0.085485198 0.90000004 12698049
0.27167213 -0.085200243 0.89700001 12698049
0.27682453 -0.085485198 0.90000004 12500670
0.28044373 -0.08529523 0.89800006 12632256
0.28404403 -0.085105263 0.89600003 12500670
0.28794724 -0.085010283 0.89500004 12698049
0.291841 -0.084915295 0.89400005 12763842
0.29572535 -0.084820315 0.89300007 12632256
0.29960024 -0.084725328 0.89200002 12698049
0.3038063 -0.084725328 0.89200002 12698049
0.3080124 -0.084725328 0.89200002 12698049
0.31221846 -0.084725328 0.89200002 12698049
0.31677926 -0.084820315 0.89300007 12763842
0.32134947 -0.084915295 0.89400005 12763842
0.32592914 -0.085010283 0.89500004 12829635
0.33014935 -0.085010283 0.89500004 12829635
0.33474317 -0.085105263 0.89600003 12829635
0.3389681 -0.085105263 0.89600003 12763842
0.34319302 -0.085105263 0.89600003 12895171
0.34703022 -0.085010283 0.89500004 12829378
0.35125041 -0.085010283 0.89500004 12829378
0.35507345 -0.084915295 0.89400005 12763585
0.35928893 -0.084915295 0.89400005 12829378
0.36350444 -0.084915295 0.89400005 12763585
0.36771995 -0.084915295 0.89400005 12763585
0.37193546 -0.084915295 0.89400005 12829378
0.37615094 -0.084915295 0.89400005 12763585
0.38079187 -0.085010283 0.89500004 12894401
0.38544226 -0.085105263 0.89600003 12697022
0.39010209 -0.085200243 0.89700001 12697792
0.39433172 -0.085200243 0.89700001 12763585
0.39900571 -0.08529523 0.89800006 12763585
0.40324008 -0.08529523 0.89800006 12829378
0.4079282 -0.085390218 0.89900005 12829378
0.41216728 -0.085390218 0.89900005 12960194
0.41686949 -0.085485198 0.90000004 12894401
0.42204911 -0.085675165 0.90200007 12828608
0.42677495 -0.085770153 0.90300006 12763585
0.43151021 -0.085865133 0.90400004 12894401
0.43625492 -0.085960113 0.90500003 12894401
0.44100904 -0.086055093 0.90600002 12894401
0.44577262 -0.086150087 0.90700006 12763585
0.45054558 -0.086245067 0.90800005 12763585
0.4548271 -0.086245067 0.90800005 12829378
0.45961425 -0.086340047 0.90900004 12829378
0.46492118 -0.086530022 0.91100007 12829378
0.46973187 -0.086625002 0.91200006 12829378
0.47455201 -0.086719982 0.91300005 12829378
0.47938159 -0.08681497 0.91400003 12500413
0.48316219 -0.086719982 0.91300005 12631229
0.48693338 -0.086625002 0.91200006 12565436
0.49015647 -0.086435027 0.91000003 12433850
0.49390408 -0.086340047 0.90900004 12236471
0.49709412 -0.086150087 0.90700006 9273480
0.78540742 -0.13269202 1.3970001 5656662
0.79766399 -0.13364185 1.4070001 6182735
0.80944318 -0.1344967 1.416 9142125
0.82707089 -0.1363014 1.4350001 9864304
0.98026735 -0.16023725 1.687 9732716
0.96947694 -0.15719777 1.6550001 9995374
0.98377633 -0.1582426 1.6660001 10127476
0.99936992 -0.15947738 1.6790001 9995890
1.0198854 -0.16147204 1.7 9732464
1.0448316 -0.16413158 1.728 9666925
1.0645577 -0.16593626 1.7470001 9732202
1.0795503 -0.16698109 1.7580001 9796712
1.0915525 -0.16755098 1.7640001 9467749
1.1023643 -0.16793093 1.7680001 9073502
1.1138421 -0.16840585 1.7730001 8810069
1.124734 -0.16878577 1.7770001 8152139
1.1343886 -0.16897574 1.779 8151371
1.1440619 -0.16916572 1.7810001 7888199
1.153754 -0.16935568 1.7830001 7887947
1.1628132 -0.16945066 1.784 8084811
1.1718819 -0.16954564 1.7850001 8216651
-6.3356814 -0.78876388 8.7380009 8622461
-21.818892 -2.7341347 30.289001 8293496
-31.549776 -3.9795654 44.086002 8687484
-28.097229 -3.5675814 39.522003 8621691
-19.689161 -2.5166783 27.880001 8556668
-18.627514 -2.3969827 26.554001 8491388
-0.69190282 -0.089636356 0.99300003 9081729
-0.68722051 -0.089636356 0.99300003 8884096
-0.68253821 -0.089636356 0.99300003 8884609
-0.67785585 -0.089636356 0.99300003 9016195
-0.67317355 -0.089636356 0.99300003 9081988
-0.66849124 -0.089636356 0.99300003 9147783
-0.66380894 -0.089636356 0.99300003 9344649
-0.65912658 -0.089636356 0.99300003 9278856
-0.88181931 -0.1207789 1.3380001 9542543
-0.87092984 -0.12014703 1.3310001 9279371
-0.86400408 -0.12005676 1.33 9739922
-0.85708779 -0.11996649 1.3290001 9739922
-0.85018092 -0.11987622 1.3280001 9805715
-0.84328347 -0.11978594 1.327 9871508
-0.8363955 -0.11969569 1.3260001 10199960
-0.82951689 -0.11960541 1.325 10857118
-0.82264781 -0.11951515 1.3240001 9278084
-0.8164047 -0.11951515 1.3240001 10067602
-0.81077349 -0.11960541 1.325 10330004
-0.80513293 -0.11969569 1.3260001 10526358
-0.80008531 -0.11987622 1.3280001 10394772
-0.79561669 -0.12014703 1.3310001 10132370
-0.7917127 -0.12050809 1.335 10198163
-0.78894782 -0.12104971 1.3410001 10001041
-0.78670985 -0.12168158 1.348 9869971
-0.78498477 -0.12240373 1.3560001 9606029
-0.7837584 -0.12321614 1.365 7106149
-0.7818777 -0.12393828 1.373 6710880
-0.7793569 -0.12457017 1.3800001 6382174
-0.77677 -0.12520204 1.3870001 5592399
-0.77300644 -0.12565339 1.3920001 6579803
-0.76974636 -0.126195 1.3980001 5527115
-0.76697552 -0.12682687 1.4050001 5132102
-0.76467991 -0.12754902 1.4130001 4934726
-0.76230884 -0.12827116 1.4210001 4013373
-0.76039404 -0.12908357 1.4300001 3092524
-0.75839436 -0.12989599 1.439 2501155
-0.75578755 -0.13061814 1.447 2106399
-0.75310534 -0.13134028 1.455 1909020
-0.75086051 -0.13215271 1.4640001 1909020
-0.74954706 -0.13314565 1.475 1777434
-0.74812996 -0.1341386 1.4860001 1777432
-0.74760658 -0.13531208 1.4990001 1580053
-0.74696058 -0.13648558 1.5120001 1710869
-0.74619204 -0.13765906 1.5250001 1710869
-0.74481624 -0.13874228 1.5370001 1710869
-0.74236751 -0.13964497 1.5470001 1710871
-0.7388742 -0.14036711 1.5550001 1579283
-0.73436457 -0.14090872 1.5610001 1579283
-0.72933257 -0.14136006 1.5660001 1645076
-0.72333151 -0.14163087 1.5690001 1776662
-0.71684575 -0.1418114 1.5710001 1777432
-0.70988953 -0.14190166 1.572 1515030
-0.70292389 -0.14199193 1.5730001 1712409
-0.69506454 -0.14190166 1.572 1646618
-0.68765205 -0.14190166 1.572 1778204
-0.6793741 -0.14172113 1.5700001 1778202
-0.67154312 -0.14163087 1.5690001 1974811
-0.6637215 -0.1415406 1.5680001 1974811
-0.65590924 -0.14145032 1.567 1843225
-0.64893425 -0.1415406 1.5680001 1645846
-0.64194977 -0.14163087 1.5690001 1909018
-0.6353603 -0.1418114 1.5710001 1843225
-0.62875193 -0.14199193 1.5730001 1843225
-0.62212473 -0.14217247 1.575 1909018
-0.61469811 -0.14217247 1.575 1909018
-0.60688597 -0.14208221 1.5740001 1843225
-0.59908313 -0.14199193 1.5730001 1646616
-0.59128982 -0.14190166 1.572 1843995
-0.58350593 -0.1418114 1.5710001 1712409
-0.5757314 -0.14172113 1.5700001 1909018
-0.56832832 -0.14172113 1.5700001 1909020
-0.56056809 -0.14163087 1.5690001 1777181
-0.55281717 -0.1415406 1.5680001 1909020
-0.54472786 -0.14136006 1.5660001 1909018
-0.53665739 -0.14117953 1.5640001 1974811
-0.52826738 -0.14090872 1.5610001 1909018
-0.52023935 -0.14072818 1.559 2040604
-0.5119012 -0.14045738 1.5560001 1974811
-0.50359136 -0.14018658 1.5530001 2040604
-0.49530983 -0.13991576 1.5500001 1974811
-0.48705655 -0.13964497 1.5470001 1974811
-0.47945184 -0.13955469 1.5460001 2040604
-0.47155112 -0.13937415 1.544 2106397
-0.46427065 -0.13937415 1.544 1975581
-0.45669425 -0.1392839 1.5430001 2107167
-0.44941849 -0.1392839 1.5430001 1778202
-0.44214278 -0.1392839 1.5430001 1843995
-0.43514886 -0.13937415 1.544 2107167
-0.42842266 -0.13955469 1.5460001 2106397
-0.42167756 -0.13973524 1.5480001 2237983
-0.41491362 -0.13991576 1.5500001 2040604
-0.40839377 -0.14018658 1.5530001 2040604
-0.40184566 -0.14045738 1.5560001 2237983
-0.39526922 -0.14072818 1.559 2040604
-0.38841572 -0.14090872 1.5610001 2369569
-0.38154331 -0.14108926 1.5630001 2106397
-0.37465206 -0.14126979 1.5650001 2237983
-0.36750728 -0.14136006 1.5660001 2303776
-0.36058298 -0.1415406 1.5680001 2434592
-0.35341462 -0.14163087 1.5690001 2106397
-0.34645736 -0.1418114 1.5710001 2435362
-0.33904958 -0.1418114 1.5710001 2369571
-0.33185291 -0.14190166 1.572 2435362
-0.32444045 -0.14190166 1.572 2435362
-0.31682628 -0.1418114 1.5710001 2698534
-0.30922157 -0.14172113 1.5700001 2698534
-0.30162627 -0.14163087 1.5690001 2697766
-0.29404041 -0.1415406 1.5680001 3027501
-0.28646398 -0.14145032 1.567 2698536
-0.27889696 -0.14136006 1.5660001 2961708
-0.27133939 -0.14126979 1.5650001 3027499
-0.26379126 -0.14117953 1.5640001 3685429
-0.2564165 -0.14117953 1.5640001 3882808
-0.24904175 -0.14117953 1.5640001 4145980
-0.24166697 -0.14117953 1.5640001 4540738
-0.23444203 -0.14126979 1.5650001 4606531
-0.22749782 -0.1415406 1.5680001 4606533
-0.22038493 -0.14172113 1.5700001 4804682
-0.21338886 -0.14199193 1.5730001 4673096
-0.20636448 -0.14226274 1.5760001 4804682
-0.19931182 -0.14253356 1.5790001 5002061
-0.19223087 -0.14280434 1.582 5002061
-0.18500482 -0.14298488 1.5840001 5133645
-0.17775992 -0.14316542 1.5860001 5199692
-0.17049614 -0.14334595 1.5880001 5199692
-0.16321352 -0.14352649 1.59 5199692
-0.15600996 -0.14379729 1.5930001 5002059
-0.1486849 -0.14397784 1.595 5067082
-0.14134097 -0.14415838 1.5970001 5067082
-0.13381061 -0.14415838 1.5970001 5132875
-0.12620117 -0.14406811 1.5960001 5067336
-0.11860116 -0.14397784 1.595 4804164
-0.11087129 -0.14370704 1.5920001 4803394
-0.10316972 -0.14343622 1.5890001 4671808
-0.095315807 -0.14289461 1.5830001 4342843
-0.087851457 -0.14289461 1.5830001 4212027
-0.080387108 -0.14289461 1.5830001 3948855
-0.072922751 -0.14289461 1.5830001 3817269
-0.065458402 -0.14289461 1.5830001 3882292
-0.033558149 -0.082685709 0.91600007 3751476
-0.029143156 -0.082414903 0.91300005 3751476
-0.024838071 -0.082414903 0.91300005 3422257
-0.020532984 -0.082414903 0.91300005 3488820
-0.016227897 -0.082414903 0.91300005 3620406
-0.011570219 -0.079977654 0.88600004 5725014
-0.0071171061 -0.076998807 0.85300004 6316122
-0.0030949384 -0.076998807 0.85300004 6645087
0.00097940641 -0.081331678 0.90100002 6908516
0.0052047004 -0.080970608 0.89700001 7567216
0.0094027892 -0.080699801 0.89400005 8027769
0.013572586 -0.080428995 0.89100003 10001559
0.017714093 -0.080158196 0.88800007 10856868
0.021851968 -0.079977654 0.88600004 11382959
0.025941605 -0.079706848 0.88300002 11449522
0.030071137 -0.079616584 0.88200003 11449522
0.03419124 -0.079526313 0.88100004 11515315
0.038301915 -0.079436049 0.88000005 11449522
0.042451397 -0.079436049 0.88000005 11646901
0.046600875 -0.079436049 0.88000005 11581108
0.050808024 -0.079526313 0.88100004 11712694
0.054962222 -0.079526313 0.88100004 11647414
0.059183519 -0.079616584 0.88200003 11647414
0.063342437 -0.079616584 0.88200003 11778487
0.067348279 -0.079436049 0.88000005 11712694
0.071497768 -0.079436049 0.88000005 11581621
0.075647242 -0.079436049 0.88000005 11713207
0.080250114 -0.07988739 0.88500005 11713207
0.083850816 -0.079345785 0.87900007 11910586
0.087995581 -0.079345785 0.87900007 11976379
0.092140347 -0.079345785 0.87900007 11976379
0.096285112 -0.079345785 0.87900007 12173760
0.10042988 -0.079345785 0.87900007 12436932
0.10457464 -0.079345785 0.87900007 12502725
0.10871942 -0.079345785 0.87900007 12371139
0.11286418 -0.079345785 0.87900007 12502725
0.11700894 -0.079345785 0.87900007 12634311
0.12115371 -0.079345785 0.87900007 12831692
0.12529849 -0.079345785 0.87900007 13029071
0.12944324 -0.079345785 0.87900007 12898255
0.24437155 -0.1366661 1.5140001 13095380
0.25234115 -0.13711745 1.5190001 13095380
0.1503379 -0.079436049 0.88000005 12963794
0.15448739 -0.079436049 0.88000005 12766669
0.15863688 -0.079436049 0.88000005 12568520
0.16278635 -0.079436049 0.88000005 12436934
0.16693583 -0.079436049 0.88000005 12305348
0.17108531 -0.079436049 0.88000005 12173249
0.17523481 -0.079436049 0.88000005 12107454
0.17938428 -0.079436049 0.88000005 11976381
0.18353376 -0.079436049 0.88000005 11975868
0.18768324 -0.079436049 0.88000005 12041661
0.1951026 -0.080790073 0.89500004 11975868
0.19887739 -0.080609538 0.89300007 11975868
0.20263332 -0.080428995 0.89100003 12041661
0.20637041 -0.08024846 0.88900006 12041661
0.21056233 -0.08024846 0.88900006 12172477
0.21451268 -0.080158196 0.88800007 12172477
0.21845359 -0.080067925 0.88700002 12238270
0.22263607 -0.080067925 0.88700002 12238270
0.22681856 -0.080067925 0.88700002 12369086
0.23100105 -0.080067925 0.88700002 12369086
0.23465326 -0.07988739 0.88500005 12434877
0.23774688 -0.079526313 0.88100004 12632256
0.24190108 -0.079526313 0.88100004 12632256
0.24605528 -0.079526313 0.88100004 12500670
0.25020945 -0.079526313 0.88100004 12632256
0.25436366 -0.079526313 0.88100004 12434877
0.25851786 -0.079526313 0.88100004 12632256
0.26267207 -0.079526313 0.88100004 12500670
0.2710664 -0.080790073 0.89500004 12632256
0.27620938 -0.081060879 0.89800006 12632256
0.27950683 -0.080790073 0.89500004 12500670
0.28341001 -0.080699801 0.89400005 12698049
0.28730378 -0.080609538 0.89300007 12698049
0.29118812 -0.080519266 0.89200002 12632256
0.29506302 -0.080428995 0.89100003 12500670
0.29926437 -0.080428995 0.89100003 12698049
0.30346572 -0.080428995 0.89100003 12698049
0.30766708 -0.080428995 0.89100003 12829635
0.31221846 -0.080519266 0.89200002 12763842
0.31677926 -0.080609538 0.89300007 12763842
0.32134947 -0.080699801 0.89400005 12895428
0.32556498 -0.080699801 0.89400005 12829635
0.33014935 -0.080790073 0.89500004 12829635
0.33474317 -0.080880336 0.89600003 12829635
0.3389681 -0.080880336 0.89600003 12895171
0.34319302 -0.080880336 0.89600003 12829378
0.34703022 -0.080790073 0.89500004 12763585
0.35125041 -0.080790073 0.89500004 12895171
0.35507345 -0.080699801 0.89400005 12697792
0.35928893 -0.080699801 0.89400005 12697792
0.36350444 -0.080699801 0.89400005 12763585
0.36730862 -0.080609538 0.89300007 12829378
0.37193546 -0.080699801 0.89400005 12763585
0.37615094 -0.080699801 0.89400005 12829378
0.38036641 -0.080699801 0.89400005 12763585
0.38501209 -0.080790073 0.89500004 12960194
0.38966718 -0.080880336 0.89600003 12894401
0.39389214 -0.080880336 0.89600003 12960194
0.39811707 -0.080880336 0.89600003 12828608
0.40279102 -0.080970608 0.89700001 12763585
0.40747446 -0.081060879 0.89800006 13025987
0.4117088 -0.081060879 0.89800006 12828608
0.41686949 -0.081241414 0.90000004 12894401
0.42158121 -0.081331678 0.90100002 12828608
0.42630234 -0.081421949 0.90200007 12894401
0.43151021 -0.081602484 0.90400004 12960194
0.43625492 -0.081692755 0.90500003 13091780
0.44052228 -0.081692755 0.90500003 12960194
0.44528112 -0.081783019 0.90600002 13025987
0.44955319 -0.081783019 0.90600002 12960194
0.45432621 -0.08187329 0.90700006 13025987
0.45910862 -0.081963561 0.90800005 13025987
0.46390048 -0.082053825 0.90900004 12960447
0.46870175 -0.082144096 0.91000003 13026240
0.4735125 -0.082234368 0.91100007 12894654
0.47780815 -0.082234368 0.91100007 12697275
0.48210379 -0.082234368 0.91100007 12631229
0.48586553 -0.082144096 0.91000003 12565436
0.48907921 -0.081963561 0.90800005 12631229
0.4928174 -0.08187329 0.90700006 12368057
0.49654603 -0.081783019 0.90600002 10063510
0.77753645 -0.12484097 1.383 6182234
0.78802627 -0.12547286 1.3900001 5657171
0.79858208 -0.12610473 1.3970001 6775905
0.80344027 -0.12583391 1.3940001 6970202
0.81582415 -0.1267366 1.404 6444112
0.83181709 -0.12818089 1.4200001 7497568
0.98141432 -0.1500258 1.6620001 7496798
0.97972769 -0.1485815 1.646 7956064
1.0042872 -0.15110902 1.674 8021859
1.0309248 -0.15390734 1.705 7824478
1.0535891 -0.15607378 1.7290001 8153443
1.0697249 -0.15724728 1.7420001 7956318
1.081033 -0.15769862 1.7470001 7824732
1.0917646 -0.15805967 1.751 7824984
1.1037905 -0.1586013 1.7570001 8153434
1.11524 -0.15905263 1.7620001 8219227
1.126099 -0.1594137 1.766 8350811
1.1363534 -0.15968451 1.7690001 8285785
1.1459889 -0.15986504 1.771 8614750
1.1556435 -0.16004558 1.7730001 8877920
1.1653167 -0.16022612 1.7750001 9140833
-6.3356814 -0.7475614 8.7380009 8753275
-21.327608 -2.5329652 29.607002 8622461
-28.020947 -3.3498244 39.155003 8622461
-23.330467 -2.80759 32.817001 8556666
-17.32971 -2.0993829 24.539001 8688506
-17.214001 -2.0993829 24.539001 8622720
-0.69190282 -0.084954038 0.99300003 8753277
-0.68722051 -0.084954038 0.99300003 9016449
-0.68253821 -0.084954038 0.99300003 9147783
-0.67785585 -0.084954038 0.99300003 9081992
-0.67317355 -0.084954038 0.99300003 8951176
-0.66849124 -0.084954038 0.99300003 8885383
-0.66380894 -0.084954038 0.99300003 9148555
-0.65912658 -0.084954038 0.99300003 9148555
-0.87852401 -0.11404203 1.3330001 9082762
-0.87223846 -0.11404203 1.3330001 9345162
-0.86400408 -0.11378537 1.33 9543311
-0.85708779 -0.11369982 1.3290001 9674897
-0.85018092 -0.11361427 1.3280001 9674899
-0.84264803 -0.11344317 1.3260001 9674129
-0.83576471 -0.11335761 1.325 9936788
-0.82889092 -0.11327206 1.3240001 10725530
-0.82202643 -0.1131865 1.3230001 9344647
-0.81578809 -0.1131865 1.3230001 9805202
-0.81016165 -0.11327206 1.3240001 9936018
-0.80452567 -0.11335761 1.325 10263956
-0.79948282 -0.11352871 1.327 10395542
-0.79561669 -0.11387093 1.3310001 10198163
-0.7917127 -0.11421314 1.335 10066577
-0.78894782 -0.11472645 1.3410001 10066577
-0.78670985 -0.11532532 1.348 10000784
-0.78498477 -0.11600975 1.3560001 9475213
