# .PCD v0.7 - Point Cloud Data file format
VERSION 0.7
FIELDS x y z rgb
SIZE 4 4 4 4
TYPE F F F U
COUNT 1 1 1 1
WIDTH 1143
HEIGHT 1
VIEWPOINT 0 0 0 1 0 0 0
POINTS 1143
DATA ascii
0.088396005 -0.067215964 0.88300002 11055279
0.092559636 -0.067215964 0.88300002 11121072
0.096723266 -0.067215964 0.88300002 11515830
0.1008869 -0.067215964 0.88300002 11910588
0.10505052 -0.067215964 0.88300002 11976381
0.10921415 -0.067215964 0.88300002 12042174
0.11337778 -0.067215964 0.88300002 11976381
0.1175414 -0.067215964 0.88300002 12305348
0.22266005 -0.11509687 1.5120001 12436934
0.22918168 -0.11479238 1.508 12502727
0.23597901 -0.11464014 1.506 12502727
0.24340309 -0.11479238 1.508 12765899
0.25151053 -0.11524912 1.5140001 12634313
0.26377469 -0.11753278 1.544 12503497
0.27263513 -0.11821789 1.5530001 12437704
0.2814002 -0.11882687 1.5610001 12306118
0.2896857 -0.11920748 1.5660001 11976383
0.29631108 -0.11890299 1.562 11844797
0.30153787 -0.11806565 1.5510001 11450037
0.30725831 -0.11745667 1.5430001 11384244
0.31412634 -0.11730443 1.5410001 11317938
0.31742999 -0.1158581 1.5220001 11252145
0.18853635 -0.067292094 0.88400006 11252145
0.19270469 -0.067292094 0.88400006 11120559
0.19687302 -0.067292094 0.88400006 11120559
0.20104137 -0.067292094 0.88400006 11120559
0.20497757 -0.067215964 0.88300002 11186352
0.20890436 -0.067139842 0.88200003 11317168
0.21330482 -0.067215964 0.88300002 11251375
0.21722217 -0.067139842 0.88200003 11120559
0.22138108 -0.067139842 0.88200003 11251375
0.2257957 -0.067215964 0.88300002 11251375
0.22995934 -0.067215964 0.88300002 11382961
0.23438813 -0.067292094 0.88400006 11251375
0.23855647 -0.067292094 0.88400006 11448754
0.24272481 -0.067292094 0.88400006 11382961
0.24689315 -0.067292094 0.88400006 11580340
0.25106147 -0.067292094 0.88400006 11646131
0.25494108 -0.067215964 0.88300002 11580338
0.25851786 -0.067063719 0.88100004 11776947
0.26237389 -0.066987604 0.88000005 11842740
0.26622054 -0.066911481 0.87900007 11842483
0.27005771 -0.066835351 0.87800002 11974069
0.27419776 -0.066835351 0.87800002 11842483
0.27833778 -0.066835351 0.87800002 11908276
0.28247783 -0.066835351 0.87800002 11974326
0.28694436 -0.066911481 0.87900007 11842740
0.29142028 -0.066987604 0.88000005 11908533
0.29590562 -0.067063719 0.88100004 11974326
0.30040041 -0.067139842 0.88200003 11908533
0.30490464 -0.067215964 0.88300002 11974326
0.30941829 -0.067292094 0.88400006 11974326
0.31394136 -0.067368209 0.88500005 12039862
0.3181144 -0.067368209 0.88500005 12105655
0.32265162 -0.067444332 0.88600004 12105655
0.3271983 -0.067520455 0.88700002 12105655
0.33175439 -0.067596577 0.88800007 12105655
0.33594161 -0.067596577 0.88800007 12040115
0.34051183 -0.0676727 0.88900006 11974579
0.34470376 -0.0676727 0.88900006 11908786
0.34889567 -0.0676727 0.88900006 12105908
0.3526904 -0.067596577 0.88800007 11974322
0.35687762 -0.067596577 0.88800007 11974322
0.36106482 -0.067596577 0.88800007 11974322
0.36525202 -0.067596577 0.88800007 11974322
0.36943924 -0.067596577 0.88800007 11974322
0.37362644 -0.067596577 0.88800007 11908529
0.37781364 -0.067596577 0.88800007 12040115
0.382431 -0.0676727 0.88900006 11974322
0.38662294 -0.0676727 0.88900006 12105138
0.39081487 -0.0676727 0.88900006 11908529
0.39500678 -0.0676727 0.88900006 11842736
0.39919871 -0.0676727 0.88900006 11974069
0.40339062 -0.0676727 0.88900006 11974069
0.408041 -0.067748822 0.89000005 12039092
0.41223761 -0.067748822 0.89000005 12236471
0.41690215 -0.067824945 0.89100003 12170678
0.42157614 -0.067901067 0.89200002 12039092
0.42625955 -0.06797719 0.89300007 12039092
0.43143442 -0.068129435 0.89500004 12104885
0.4361414 -0.068205558 0.89600003 12104885
0.4408578 -0.068281673 0.89700001 12170678
0.44607982 -0.068433926 0.89900005 12104885
0.45081982 -0.068510048 0.90000004 12170678
0.45506361 -0.068510048 0.90000004 12236471
0.45981774 -0.068586163 0.90100002 11974069
0.46458131 -0.068662293 0.90200007 12039862
0.4693543 -0.068738416 0.90300006 11973299
0.47413671 -0.068814531 0.90400004 12105138
0.47892857 -0.068890654 0.90500003 11776173
0.48319593 -0.068890654 0.90500003 11775660
0.48692468 -0.068814531 0.90400004 11644074
0.49118733 -0.068814531 0.90400004 11512235
0.49544993 -0.068814531 0.90400004 10063510
0.76291907 -0.10329793 1.3570001 4670280
0.76931775 -0.10329793 1.3570001 4144706
0.7768597 -0.10345017 1.3590001 4078913
0.78384417 -0.10352629 1.36 4144704
0.79141921 -0.10367854 1.3620001 4078911
0.79959875 -0.1039069 1.365 3947323
0.80898774 -0.10428752 1.3700001 3947580
0.80949551 -0.10352629 1.36 3946806
0.81470853 -0.10337404 1.358 3946806
0.81869334 -0.10306956 1.3540001 4011314
0.82385921 -0.10291731 1.3520001 3682351
0.82962018 -0.10284119 1.3510001 3288110
0.83599061 -0.10284119 1.3510001 3748396
1.0880235 -0.13283336 1.7450001 3748394
1.1113292 -0.1346603 1.7690001 4012336
1.1234683 -0.13511704 1.7750001 3749677
1.1350262 -0.13549764 1.7800001 4011566
1.1459889 -0.13580213 1.784 4274736
1.1569895 -0.13610663 1.7880001 4208943
1.1667241 -0.13625887 1.7900001 4538678
1.1758211 -0.136335 1.7910001 4473400
-9.2011194 -0.91208106 12.773001 8030322
-9.1315861 -0.91115272 12.76 7832173
-9.0714188 -0.91115272 12.76 7897966
-9.0112514 -0.91115272 12.76 7766382
-7.7753773 -0.7914747 11.084001 7767152
-0.57275337 -0.058696516 0.82200003 7963761
-0.5688774 -0.058696516 0.82200003 8095347
-0.56500143 -0.058696516 0.82200003 8292726
-0.5611254 -0.058696516 0.82200003 8292472
-0.55724943 -0.058696516 0.82200003 8226679
-0.5533734 -0.058696516 0.82200003 8292472
-0.54949743 -0.058696516 0.82200003 8424060
-0.86111468 -0.093971558 1.3160001 8490623
-0.85360998 -0.093828738 1.314 8687232
-0.84870398 -0.093971558 1.3160001 8621439
-0.8424986 -0.093971558 1.3160001 8687232
-0.83692867 -0.094042957 1.317 8884098
-0.83134937 -0.094114371 1.3180001 9278086
-0.8257606 -0.09418577 1.319 9542030
-0.81954104 -0.09418577 1.319 8226429
-0.8139382 -0.094257183 1.3200001 8949893
-0.80832589 -0.09432859 1.3210001 8883846
-0.80331135 -0.094471402 1.3230001 9212041
-0.79827791 -0.094614215 1.325 9014662
-0.79442114 -0.094899848 1.3290001 8883846
-0.79111969 -0.09525688 1.3340001 9081225
-0.78835946 -0.095685318 1.34 8949123
-0.78670985 -0.096256576 1.348 8686721
-0.78498477 -0.096827835 1.3560001 8424062
-0.7837584 -0.097470492 1.365 6119000
-0.7818777 -0.09804175 1.373 5526606
-0.7793569 -0.098541602 1.3800001 5461070
-0.77677 -0.099041447 1.3870001 4934723
-0.77356172 -0.099469885 1.393 5594450
-0.77084756 -0.099969745 1.4000001 4409152
-0.76915908 -0.1006124 1.409 4474177
-0.76792693 -0.10132647 1.419 4276798
-0.76767343 -0.10218336 1.4310001 3290671
-0.76730675 -0.10304024 1.4430001 2436134
-0.76682687 -0.10389712 1.455 2172962
-0.76675612 -0.10482541 1.4680001 1843995
-0.76604527 -0.10568229 1.48 1777432
-0.76624697 -0.106682 1.4940001 1580055
-0.76682478 -0.1077531 1.5090001 1514262
-0.76776463 -0.10889561 1.5250001 1382676
-0.76905227 -0.11010952 1.5420001 1186067
-0.77017957 -0.11132344 1.559 988688
-0.77163589 -0.11260877 1.577 922895
-0.77292246 -0.11389409 1.595 857102
-0.77403933 -0.11517942 1.613 857102
-0.77451122 -0.11639334 1.6300001 857100
-0.77435237 -0.11753584 1.646 791307
-0.77357692 -0.11860695 1.6610001 857100
-0.77173793 -0.11953524 1.674 857100
-0.7688638 -0.12032072 1.6850001 922123
-0.76453114 -0.12089197 1.6930001 987916
-0.75922936 -0.12132042 1.6990001 922123
-0.75298661 -0.12160604 1.7030001 987916
-0.74539387 -0.12167746 1.7040001 1119504
-0.7369262 -0.12160604 1.7030001 987918
-0.72846806 -0.12153464 1.702 857102
-0.71959597 -0.12139183 1.7 1119504
-0.71116138 -0.12132042 1.6990001 1119504
-0.7027362 -0.12124901 1.6980001 987918
-0.69472957 -0.12124901 1.6980001 987918
-0.68672293 -0.12124901 1.6980001 987916
-0.67831659 -0.1211776 1.697 987916
-0.66952467 -0.12103479 1.6950001 987916
-0.65997112 -0.12074917 1.6910001 724744
-0.65006971 -0.12039213 1.6860001 1052939
-0.6402154 -0.1200351 1.6810001 856330
-0.63040823 -0.11967807 1.6760001 1118732
-0.62101966 -0.11939243 1.6720001 922123
-0.6124022 -0.11924962 1.6700001 987916
-0.60416561 -0.11917821 1.669 922123
-0.59629577 -0.11917821 1.669 987916
-0.58807337 -0.11910681 1.6680001 922123
-0.57986033 -0.11903539 1.6670001 987918
-0.57131362 -0.11889258 1.6650001 922123
-0.5627858 -0.11874977 1.6630001 987916
-0.55360943 -0.11846413 1.659 987916
-0.54479975 -0.11824992 1.6560001 987918
-0.53601837 -0.1180357 1.6530001 1053711
-0.52758485 -0.11789288 1.651 1119504
-0.51948506 -0.11782148 1.6500001 1250320
-0.51201487 -0.11789288 1.651 1250320
-0.50514609 -0.1181071 1.654 1053711
-0.49824902 -0.11832133 1.6570001 1053711
-0.49132368 -0.11853555 1.6600001 1053711
-0.48466128 -0.11882117 1.664 1053711
-0.47767466 -0.11903539 1.6670001 1119504
-0.47037789 -0.11917821 1.669 1119504
-0.46333936 -0.11939243 1.6720001 1119504
-0.45572776 -0.11946384 1.6730001 1119504
-0.44810668 -0.11953524 1.674 1053711
-0.44021323 -0.11953524 1.674 1185297
-0.43154505 -0.11932103 1.6710001 1250320
-0.42290512 -0.11910681 1.6680001 1250320
-0.41379586 -0.11874977 1.6630001 1119504
-0.40473372 -0.11839274 1.6580001 1185297
-0.39571878 -0.1180357 1.6530001 1185297
-0.38675094 -0.11767866 1.6480001 1053711
-0.37806022 -0.11739303 1.6440001 1053711
-0.36963248 -0.11717881 1.641 1119504
-0.36145359 -0.117036 1.6390001 1185297
-0.35394102 -0.11710741 1.6400001 1316113
-0.34663007 -0.11725022 1.6420001 1119504
-0.33950672 -0.11746445 1.6450001 1119504
-0.33235502 -0.11767866 1.6480001 1316883
-0.32497808 -0.11782148 1.6500001 1316883
-0.31739002 -0.11789288 1.651 1316883
-0.30941752 -0.11782148 1.6500001 1185297
-0.30145442 -0.11775007 1.649 1185297
-0.29350078 -0.11767866 1.6480001 1185297
-0.28572991 -0.11767866 1.6480001 1185297
-0.27795908 -0.11767866 1.6480001 1316881
-0.27035218 -0.11775007 1.649 1316881
-0.26289508 -0.11789288 1.651 1316881
-0.25541914 -0.1180357 1.6530001 1316883
-0.24807413 -0.11824992 1.6560001 1316883
-0.2408459 -0.11853555 1.6600001 1382676
-0.23343958 -0.11874977 1.6630001 1382676
-0.22586933 -0.11889258 1.6650001 1316883
-0.2182802 -0.11903539 1.6670001 1316883
-0.2106722 -0.11917821 1.669 1185297
-0.20292386 -0.11924962 1.6700001 1382676
-0.19504927 -0.11924962 1.6700001 1316883
-0.18728678 -0.11932103 1.6710001 1382676
-0.17951483 -0.11939243 1.6720001 1316883
-0.17132287 -0.11917821 1.669 1316883
-0.16355093 -0.11924962 1.6700001 1448469
-0.15558313 -0.11917821 1.669 1448467
-0.14691672 -0.11853555 1.6600001 1382674
-0.1383352 -0.11789288 1.651 1316111
-0.12975946 -0.11717881 1.641 1513490
-0.12075754 -0.1159649 1.6240001 1447697
-0.111707 -0.11453676 1.6040001 1513490
-0.10414363 -0.11453676 1.6040001 1579283
-0.095074959 -0.11275159 1.5790001 1579283
-0.087351985 -0.11239455 1.5740001 1645076
-0.079930075 -0.11239455 1.5740001 1579283
-0.072508164 -0.11239455 1.5740001 1514260
-0.065086246 -0.11239455 1.5740001 1645848
-0.057664335 -0.11239455 1.5740001 1580055
-0.05024242 -0.11239455 1.5740001 1645848
-0.04282051 -0.11239455 1.5740001 1843227
-0.034161668 -0.10846717 1.5190001 1777434
-0.025914866 -0.10411134 1.4580001 1974813
-0.018778753 -0.1026832 1.4380001 2369571
-0.0071838549 -0.06148139 0.86100006 4934726
-0.0033452909 -0.065837212 0.92200005 5066314
0.00099136366 -0.065123148 0.91200006 5593428
0.0052279094 -0.064337663 0.90100002 6185312
0.009423824 -0.063980632 0.89600003 7040104
0.013618285 -0.063837819 0.89400005 9212043
0.017793885 -0.063695006 0.89200002 9869973
0.021975286 -0.0636236 0.89100003 10462110
0.026147258 -0.063552193 0.89000005 10331041
0.030275704 -0.063409381 0.88800007 10594726
0.03446291 -0.063409381 0.88800007 10594726
0.038606588 -0.063337967 0.88700002 10528933
0.042740837 -0.06326656 0.88600004 10660519
0.046918605 -0.06326656 0.88600004 10660519
0.051038709 -0.063195154 0.88500005 10660519
0.055211768 -0.063195154 0.88500005 10792105
0.059317723 -0.063123748 0.88400006 10726312
0.063486069 -0.063123748 0.88400006 10726312
0.067577876 -0.063052341 0.88300002 10792105
0.071741506 -0.063052341 0.88300002 10923691
0.075905129 -0.063052341 0.88300002 10923691
0.080068752 -0.063052341 0.88300002 10792105
0.084136993 -0.062980935 0.88200003 10923691
0.088295899 -0.062980935 0.88200003 11055279
0.17046802 -0.10653918 1.4920001 11252658
0.10505052 -0.063052341 0.88300002 12042176
0.10921415 -0.063052341 0.88300002 12173762
0.11337778 -0.063052341 0.88300002 12042176
0.21695594 -0.10868139 1.5220001 12371141
0.22354363 -0.10839576 1.5180001 12502727
0.23024553 -0.10818154 1.5150001 12436934
0.23723255 -0.10811013 1.5140001 12568520
0.24485578 -0.10832436 1.5170001 12502727
0.25234115 -0.10846717 1.5190001 12568520
0.26240796 -0.10968108 1.536 12568520
0.2719329 -0.11060937 1.549 12371911
0.28013828 -0.11096641 1.554 12436934
0.28765088 -0.11103781 1.5550001 12107969
0.29422441 -0.1107522 1.5510001 11713211
0.29959372 -0.11003812 1.5410001 11515832
0.30506787 -0.10939546 1.5320001 11450037
0.30903018 -0.10825294 1.516 11317938
0.31430155 -0.10761029 1.5070001 11186865
0.32012787 -0.10718184 1.501 11121072
0.19270469 -0.063123748 0.88400006 11252145
0.19687302 -0.063123748 0.88400006 11186352
0.20104137 -0.063123748 0.88400006 11120559
0.20497757 -0.063052341 0.88300002 11186352
0.20890436 -0.062980935 0.88200003 11251375
0.21354641 -0.063123748 0.88400006 11251375
0.21746846 -0.063052341 0.88300002 11382961
0.22163208 -0.063052341 0.88300002 11251375
0.22605143 -0.063123748 0.88400006 11317168
0.23021978 -0.063123748 0.88400006 11382961
0.23438813 -0.063123748 0.88400006 11317168
0.23882632 -0.063195154 0.88500005 11382961
0.24299939 -0.063195154 0.88500005 11317168
0.24717245 -0.063195154 0.88500005 11580340
0.25134549 -0.063195154 0.88500005 11448754
0.25522983 -0.063123748 0.88400006 11579568
0.2588113 -0.062980935 0.88200003 11776947
0.26267207 -0.062909529 0.88100004 11579568
0.26652339 -0.062838122 0.88000005 11776947
0.2703653 -0.062766716 0.87900007 11908533
0.27419776 -0.06269531 0.87800002 11776947
0.27833778 -0.06269531 0.87800002 11776947
0.28247783 -0.06269531 0.87800002 11842740
0.2866179 -0.06269531 0.87800002 11776947
0.29108912 -0.062766716 0.87900007 11842740
0.29556975 -0.062838122 0.88000005 11908533
0.29971924 -0.062838122 0.88000005 11908533
0.30421403 -0.062909529 0.88100004 11974326
0.30871823 -0.062980935 0.88200003 11974326
0.31323186 -0.063052341 0.88300002 12039862
0.31739551 -0.063052341 0.88300002 12039862
0.32192332 -0.063123748 0.88400006 11974069
0.32646054 -0.063195154 0.88500005 12039862
0.33100718 -0.06326656 0.88600004 12105655
0.33556327 -0.063337967 0.88700002 12040115
0.34012881 -0.063409381 0.88800007 12040115
0.34431601 -0.063409381 0.88800007 11974322
0.3485032 -0.063409381 0.88800007 11974322
0.35229322 -0.063337967 0.88700002 11908529
0.35647571 -0.063337967 0.88700002 11908529
0.3606582 -0.063337967 0.88700002 11908529
0.36484069 -0.063337967 0.88700002 11974069
0.36902317 -0.063337967 0.88700002 11974069
0.37320566 -0.063337967 0.88700002 12039862
0.37781364 -0.063409381 0.88800007 11908276
0.38200083 -0.063409381 0.88800007 12039862
0.38618803 -0.063409381 0.88800007 11908529
0.39037526 -0.063409381 0.88800007 11908529
0.39456245 -0.063409381 0.88800007 11908529
0.39919871 -0.063480787 0.88900006 12040115
0.40339062 -0.063480787 0.88900006 11908529
0.40758255 -0.063480787 0.88900006 11908529
0.41223761 -0.063552193 0.89000005 12040115
0.41690215 -0.0636236 0.89100003 11908529
0.42157614 -0.063695006 0.89200002 12039862
0.42625955 -0.063766412 0.89300007 12039862
0.43095237 -0.063837819 0.89400005 11974069
0.4361414 -0.063980632 0.89600003 12104885
0.4408578 -0.064052038 0.89700001 12104885
0.44558364 -0.064123452 0.89800006 12236471
0.4503189 -0.064194851 0.89900005 12368057
0.45506361 -0.064266257 0.90000004 12170678
0.45981774 -0.064337663 0.90100002 12104885
0.46458131 -0.064409077 0.90200007 12104885
0.4693543 -0.064480484 0.90300006 11907506
0.47413671 -0.06455189 0.90400004 11907506
0.47839937 -0.06455189 0.90400004 11907506
0.48266202 -0.06455189 0.90400004 11775407
0.48692468 -0.06455189 0.90400004 11709614
0.49118733 -0.06455189 0.90400004 11512235
0.49544993 -0.06455189 0.90400004 7498096
0.76123244 -0.096685022 1.3540001 5196111
0.76818383 -0.096756421 1.355 4276038
0.77514482 -0.096827835 1.3560001 4210756
0.78211516 -0.096899241 1.3570001 3947582
0.78909487 -0.096970648 1.358 3750201
0.79666984 -0.09711346 1.36 3422006
0.80426371 -0.09725628 1.3620001 3815988
0.80711466 -0.096827835 1.3560001 3617326
0.81290871 -0.096756421 1.355 3090984
0.81808871 -0.096613608 1.353 3090984
0.82385921 -0.096542209 1.3520001 3222570
0.82962018 -0.096470796 1.3510001 2893605
0.83599061 -0.096470796 1.3510001 2893605
0.84236091 -0.096470796 1.3510001 2894118
1.1138421 -0.12660454 1.7730001 2894118
1.1259999 -0.12703297 1.779 2696737
1.1382145 -0.12746142 1.7850001 3091236
1.1498432 -0.12781845 1.7900001 2762271
1.1615191 -0.12817548 1.7950001 2959650
1.1719384 -0.1283897 1.7980001 2893857
1.1810732 -0.12846112 1.7990001 2828577
-0.8681823 -0.078829512 1.182 7570286
-0.86260891 -0.078829512 1.182 7570025
-0.8570354 -0.078829512 1.182 7635564
-0.85146189 -0.078829512 1.182 7635564
-0.84588838 -0.078829512 1.182 7832943
-0.84031487 -0.078829512 1.182 7504493
-0.83474135 -0.078829512 1.182 7767665
-0.82916784 -0.078829512 1.182 7897968
-0.57275337 -0.054820523 0.82200003 7962994
-0.5688774 -0.054820523 0.82200003 7963507
-0.56500143 -0.054820523 0.82200003 7963507
-0.5611254 -0.054820523 0.82200003 7963507
-0.55724943 -0.054820523 0.82200003 8226679
-0.5533734 -0.054820523 0.82200003 8095867
-0.54949743 -0.054820523 0.82200003 8292476
-0.86046028 -0.087699495 1.3150001 8555394
-0.85360998 -0.087632805 1.314 8621439
-0.848059 -0.087699495 1.3150001 8687232
-0.8424986 -0.087766193 1.3160001 8818820
-0.83692867 -0.087832876 1.317 8687234
-0.83134937 -0.087899573 1.3180001 9147785
-0.8257606 -0.087966263 1.319 9609104
-0.81954104 -0.087966263 1.319 8292222
-0.8139382 -0.088032953 1.3200001 9014662
-0.80893779 -0.088166334 1.322 9080455
-0.80391854 -0.088299729 1.3240001 9013892
-0.7988804 -0.088433109 1.3260001 9080455
-0.79501885 -0.08869987 1.33 8949639
-0.7917127 -0.089033328 1.335 8883846
-0.78953612 -0.089500166 1.342 8752260
-0.78729349 -0.089967012 1.3490001 8489088
-0.78614253 -0.090567239 1.358 7964029
-0.78433263 -0.091100767 1.3660001 5790035
-0.78244722 -0.091634303 1.3740001 5854801
-0.77992159 -0.092101142 1.381 5592653
-0.77677 -0.092501298 1.3870001 4868930
-0.77411705 -0.092968136 1.3940001 5463377
-0.77139813 -0.093434975 1.401 4473918
-0.769705 -0.094035201 1.4100001 4539713
-0.76900935 -0.094768815 1.4210001 4211773
-0.76874638 -0.095569111 1.4330001 3158569
-0.76890194 -0.096436106 1.4460001 2567202
-0.76840794 -0.097236402 1.4580001 2040606
-0.76832306 -0.098103389 1.4710001 1975583
-0.7681157 -0.098970383 1.4840001 1646616
-0.76829851 -0.09990406 1.498 1383446
-0.76936561 -0.10097113 1.5140001 1383446
-0.77028191 -0.1020382 1.5300001 1054481
-0.77204472 -0.10323865 1.5480001 1054481
-0.77363777 -0.1044391 1.5660001 1186067
-0.77555037 -0.10570624 1.585 922895
-0.77728385 -0.10697338 1.6040001 857102
-0.77883804 -0.10824051 1.623 922895
-0.77973795 -0.10944097 1.641 987918
-0.78046817 -0.11064141 1.659 791309
-0.78009713 -0.11170848 1.6750001 922125
-0.7786532 -0.11264217 1.6890001 987916
-0.77662086 -0.11350916 1.702 922893
-0.77311128 -0.11417608 1.7120001 857100
-0.76816672 -0.11464292 1.7190001 857100
-0.76227182 -0.11497638 1.7240001 1053709
-0.75501746 -0.11510976 1.7260001 987916
-0.7468788 -0.11510976 1.7260001 1053709
-0.73874021 -0.11510976 1.7260001 1119502
-0.73017824 -0.11504306 1.725 1119504
-0.7216258 -0.11497638 1.7240001 1053711
-0.71349657 -0.11497638 1.7240001 987916
-0.70536733 -0.11497638 1.7240001 1053709
-0.69723815 -0.11497638 1.7240001 1053709
-0.6887092 -0.11490968 1.723 1053709
-0.67939967 -0.11470961 1.72 987918
-0.67011857 -0.11450954 1.7170001 987918
-0.6600945 -0.11417608 1.7120001 987916
-0.65011758 -0.11384262 1.7070001 1053709
-0.6401878 -0.11350916 1.702 987916
-0.63067663 -0.1132424 1.6980001 1119502
-0.62156987 -0.11304232 1.6950001 987916
-0.61321545 -0.11297563 1.6940001 987918
-0.60522777 -0.11297563 1.6940001 987918
-0.59723997 -0.11297563 1.6940001 1119504
-0.58925223 -0.11297563 1.6940001 1053711
-0.5812645 -0.11297563 1.6940001 1184525
-0.57259983 -0.11284224 1.692 1119502
-0.56395411 -0.11270886 1.6900001 987916
-0.5553273 -0.11257548 1.6880001 987918
-0.54671925 -0.11244209 1.6860001 987918
-0.53813016 -0.11230871 1.6840001 1053711
-0.53018957 -0.11230871 1.6840001 987918
-0.52255905 -0.1123754 1.6850001 1184527
-0.51552999 -0.11257548 1.6880001 1118734
-0.50847262 -0.11277555 1.6910001 987918
-0.50138694 -0.11297563 1.6940001 1053711
-0.49427295 -0.1131757 1.697 987918
-0.48713073 -0.11337578 1.7 1053711
-0.47996017 -0.11357585 1.7030001 1119504
-0.4724842 -0.11370923 1.705 1119504
-0.464717 -0.11377592 1.7060001 987918
-0.45694035 -0.11384262 1.7070001 1185297
-0.44862831 -0.11377592 1.7060001 1053711
-0.44006747 -0.11364254 1.7040001 1053711
-0.43101838 -0.11337578 1.7 1053711
-0.42175823 -0.11304232 1.6950001 922125
-0.41230112 -0.11264217 1.6890001 922125
-0.40290058 -0.11224202 1.6830001 1053711
-0.39332196 -0.11177518 1.6760001 987918
-0.38426927 -0.11144172 1.6710001 987918
-0.37526372 -0.11110827 1.6660001 1119504
-0.3667464 -0.11090819 1.6630001 1119504
-0.35890481 -0.11090819 1.6630001 1053711
-0.35169655 -0.11110827 1.6660001 1119504
-0.34445998 -0.11130833 1.669 1119504
-0.3373968 -0.1115751 1.6730001 1119504
-0.33009896 -0.11177518 1.6760001 1119504
-0.32219607 -0.11177518 1.6760001 1185297
-0.31429321 -0.11177518 1.6760001 1185297
-0.30620751 -0.11170848 1.6750001 1185297
-0.29813123 -0.11164179 1.674 1185297
-0.29006442 -0.1115751 1.6730001 1119504
-0.28217569 -0.1115751 1.6730001 1185297
-0.2744509 -0.11164179 1.674 1119502
-0.26687592 -0.11177518 1.6760001 1119502
-0.25943661 -0.11197525 1.6790001 1185297
-0.2521188 -0.11224202 1.6830001 1185297
-0.24461819 -0.11244209 1.6860001 1316883
-0.23722963 -0.11270886 1.6900001 1119504
-0.22966774 -0.11290894 1.6930001 1185297
-0.22207752 -0.11310901 1.6960001 1185297
-0.21433279 -0.1132424 1.6980001 1316113
-0.20644769 -0.11330909 1.6990001 1185297
-0.19866994 -0.11344247 1.7010001 1185297
-0.1906492 -0.11344247 1.7010001 1119504
-0.18273579 -0.11350916 1.702 1119504
-0.17429972 -0.1132424 1.6980001 1316113
-0.16648898 -0.11337578 1.7 1250320
-0.15837972 -0.11330909 1.6990001 1119504
-0.14904083 -0.11230871 1.6840001 1185297
-0.14026234 -0.11164179 1.674 1185297
-0.13221075 -0.11150841 1.6720001 1250320
-0.12075754 -0.10830721 1.6240001 1316113
-0.111707 -0.10697338 1.6040001 1447699
-0.10414363 -0.10697338 1.6040001 1316113
-0.095074959 -0.10530609 1.5790001 1447699
-0.087351985 -0.10497263 1.5740001 1447699
-0.079930075 -0.10497263 1.5740001 1513490
-0.072508164 -0.10497263 1.5740001 1579283
-0.065086246 -0.10497263 1.5740001 1448467
-0.057664335 -0.10497263 1.5740001 1514260
-0.05024242 -0.10497263 1.5740001 1580055
-0.04282051 -0.10497263 1.5740001 1580055
-0.034161668 -0.10130459 1.5190001 1645848
-0.025914866 -0.097236402 1.4580001 1909020
-0.018778753 -0.09590257 1.4380001 2237985
-0.0071838549 -0.057421498 0.86100006 4738119
-0.0031239646 -0.057421498 0.86100006 5198670
0.00093592564 -0.057421498 0.86100006 5659221
0.0049958164 -0.057421498 0.86100006 7831160
0.0094133066 -0.059689011 0.89500004 6581093
0.013618285 -0.059622321 0.89400005 9080457
0.017813833 -0.059555631 0.89300007 9935766
0.021975286 -0.059422243 0.89100003 10461857
0.026147258 -0.059355553 0.89000005 10594213
0.030309798 -0.059288863 0.88900006 10660006
0.03446291 -0.059222173 0.88800007 10594213
0.038606588 -0.059155475 0.88700002 10594213
0.042740837 -0.059088785 0.88600004 10660006
0.046918605 -0.059088785 0.88600004 10660006
0.051038709 -0.059022095 0.88500005 10791592
0.05514938 -0.058955405 0.88400006 10725799
0.059317723 -0.058955405 0.88400006 10791592
0.063414253 -0.058888711 0.88300002 10857385
0.067577876 -0.058888711 0.88300002 10857385
0.071660258 -0.058822021 0.88200003 10857385
0.075819165 -0.058822021 0.88200003 10857385
0.079978079 -0.058822021 0.88200003 10857385
0.084041603 -0.058755327 0.88100004 10988971
0.16452815 -0.10017084 1.5020001 11055279
0.17206757 -0.1004376 1.506 11384244
0.17988266 -0.10083775 1.5120001 11515832
0.18750696 -0.10110451 1.516 11844797
0.1956826 -0.10163805 1.524 11910590
0.20340121 -0.10190482 1.5280001 12042176
0.21060622 -0.10190482 1.5280001 12042176
0.21781124 -0.10190482 1.5280001 12305348
0.22472171 -0.10177143 1.526 12306118
0.2317653 -0.10170474 1.5250001 12437704
0.23895618 -0.10170474 1.5250001 12371911
0.24663126 -0.10190482 1.5280001 12306118
0.25483298 -0.10230497 1.534 12240325
0.26343301 -0.10283849 1.5420001 12371911
0.2719329 -0.10330533 1.549 12371911
0.27959749 -0.10343873 1.5510001 12371911
0.28672594 -0.10337203 1.5500001 12107969
0.29270682 -0.10290519 1.5430001 11910590
0.29823279 -0.10230497 1.534 11515832
0.30367395 -0.10170474 1.5250001 11450039
0.30841866 -0.10090444 1.5130001 11186865
0.31409299 -0.1004376 1.506 11186865
0.32012787 -0.10010414 1.501 11121072
0.19270469 -0.058955405 0.88400006 11186352
0.19687302 -0.058955405 0.88400006 11120559
0.20104137 -0.058955405 0.88400006 11120559
0.20497757 -0.058888711 0.88300002 11120559
0.20961492 -0.059022095 0.88500005 11317168
0.21378797 -0.059022095 0.88500005 11251375
0.21796103 -0.059022095 0.88500005 11317168
0.22213408 -0.059022095 0.88500005 11317168
0.22630714 -0.059022095 0.88500005 11185582
0.23048019 -0.059022095 0.88500005 11251375
0.23465326 -0.059022095 0.88500005 11382961
0.23909618 -0.059088785 0.88600004 11382961
0.24327396 -0.059088785 0.88600004 11317168
0.24745174 -0.059088785 0.88600004 11448754
0.25162947 -0.059088785 0.88600004 11448754
0.25551856 -0.059022095 0.88500005 11580340
0.25910473 -0.058888711 0.88300002 11711926
0.26297021 -0.058822021 0.88200003 11646131
0.26682624 -0.058755327 0.88100004 11776947
0.2703653 -0.058621947 0.87900007 11842740
0.27451006 -0.058621947 0.87900007 11776947
0.27833778 -0.058555253 0.87800002 11974069
0.28247783 -0.058555253 0.87800002 11776947
0.2866179 -0.058555253 0.87800002 11908533
0.29108912 -0.058621947 0.87900007 11842740
0.29523388 -0.058621947 0.87900007 11842740
0.29937866 -0.058621947 0.87900007 11908533
0.30386874 -0.058688637 0.88000005 11908276
0.30801821 -0.058688637 0.88000005 11842483
0.31252241 -0.058755327 0.88100004 12039862
0.31703606 -0.058822021 0.88200003 12105655
0.32155913 -0.058888711 0.88300002 12039862
0.32609165 -0.058955405 0.88400006 12105655
0.33063361 -0.059022095 0.88500005 12105655
0.33518496 -0.059088785 0.88600004 12039862
0.33936274 -0.059088785 0.88600004 12105655
0.34392825 -0.059155475 0.88700002 12105655
0.34811074 -0.059155475 0.88700002 11974322
0.35189605 -0.059088785 0.88600004 11974322
0.35607383 -0.059088785 0.88600004 12039345
0.36025161 -0.059088785 0.88600004 11974322
0.36442938 -0.059088785 0.88600004 12040115
0.36860716 -0.059088785 0.88600004 11908529
0.37320566 -0.059155475 0.88700002 11908529
0.37738815 -0.059155475 0.88700002 11842736
0.38157064 -0.059155475 0.88700002 11842736
0.38618803 -0.059222173 0.88800007 11974322
0.39037526 -0.059222173 0.88800007 11974322
0.39456245 -0.059222173 0.88800007 11908529
0.39919871 -0.059288863 0.88900006 12105138
0.40339062 -0.059288863 0.88900006 12170931
0.408041 -0.059355553 0.89000005 12039345
0.41223761 -0.059355553 0.89000005 12105138
0.41690215 -0.059422243 0.89100003 11908529
0.42157614 -0.059488934 0.89200002 11842736
0.42625955 -0.059555631 0.89300007 12170931
0.43143442 -0.059689011 0.89500004 12040115
0.4361414 -0.059755702 0.89600003 11908529
0.4408578 -0.059822392 0.89700001 12039862
0.44558364 -0.059889089 0.89800006 12105655
0.45081982 -0.06002247 0.90000004 12039862
0.45506361 -0.06002247 0.90000004 12104885
0.45981774 -0.06008916 0.90100002 12170678
0.46458131 -0.060155854 0.90200007 11907506
0.4693543 -0.060222544 0.90300006 11973299
0.47413671 -0.060289238 0.90400004 11973299
0.47839937 -0.060289238 0.90400004 11907506
0.48266202 -0.060289238 0.90400004 11710127
0.48692468 -0.060289238 0.90400004 11644334
0.49118733 -0.060289238 0.90400004 11446955
0.49490187 -0.060222544 0.90300006 7958647
0.76123244 -0.090300471 1.3540001 4341831
0.76761699 -0.090300471 1.3540001 4013120
0.77457315 -0.090367161 1.355 3749178
0.78153878 -0.090433851 1.3560001 3288625
0.78851384 -0.090500548 1.3570001 3026221
0.79491252 -0.090500548 1.3570001 2960685
0.8019017 -0.090567239 1.358 3158058
0.80651945 -0.090367161 1.355 3090982
0.81230879 -0.090300471 1.3540001 2893603
0.81748408 -0.09016709 1.3520001 3025704
0.82324982 -0.090100393 1.3510001 3288876
0.82962018 -0.090100393 1.3510001 2959145
0.83599061 -0.090100393 1.3510001 2827812
0.84236091 -0.090100393 1.3510001 2696739
1.1150985 -0.11837765 1.7750001 2696739
1.1291647 -0.11897787 1.784 2631716
1.1420405 -0.11944472 1.7910001 2500128
1.1543398 -0.11984486 1.7970001 2565921
1.1666957 -0.12024502 1.8030001 2697507
1.1784564 -0.12057848 1.8080001 2762530
1.1882948 -0.12071186 1.8100001 2828325
-0.8681823 -0.073256001 1.182 7570538
-0.86260891 -0.073256001 1.182 7439212
-0.8570354 -0.073256001 1.182 7176040
-0.85146189 -0.073256001 1.182 7570800
-0.84588838 -0.073256001 1.182 7636079
-0.84031487 -0.073256001 1.182 7832943
-0.83474135 -0.073256001 1.182 7569771
-0.82916784 -0.073256001 1.182 7766382
-0.57275337 -0.050944529 0.82200003 7963507
-0.5688774 -0.050944529 0.82200003 7767411
-0.56500143 -0.050944529 0.82200003 7964279
-0.5611254 -0.050944529 0.82200003 8030074
-0.55724943 -0.050944529 0.82200003 7964279
-0.5533734 -0.050944529 0.82200003 8095865
-0.86666095 -0.081498854 1.3150001 8424830
-0.86046028 -0.081498854 1.3150001 8424060
-0.85360998 -0.081436872 1.314 8490623
-0.848059 -0.081498854 1.3150001 8490623
-0.8424986 -0.081560828 1.3160001 8622209
-0.83692867 -0.081622802 1.317 8490625
-0.83134937 -0.081684783 1.3180001 9278086
-0.82513458 -0.081684783 1.3180001 9739405
-0.81954104 -0.08174675 1.319 8619386
-0.81455487 -0.081870712 1.3210001 8948099
-0.80893779 -0.081932686 1.322 9211525
-0.80452567 -0.082118616 1.325 9014146
-0.80008531 -0.082304545 1.3280001 9079939
-0.7962144 -0.082552448 1.332 9014916
-0.79289877 -0.082862325 1.337 9014146
-0.79071283 -0.083296165 1.3440001 8817537
-0.78904432 -0.083791979 1.3520001 8620928
-0.78730035 -0.084287785 1.36 8094843
-0.78548098 -0.084783591 1.368 5921621
-0.78301674 -0.085217431 1.3750001 5855055
-0.7804864 -0.085651264 1.3820001 5461067
-0.77732998 -0.086023122 1.388 4934469
-0.77467239 -0.086456962 1.3950001 5397330
-0.77194875 -0.086890794 1.4020001 4277568
-0.77079678 -0.087510556 1.4120001 4408384
-0.77009165 -0.088192292 1.4230001 3882808
-0.76981926 -0.088936009 1.4350001 3225132
-0.76996547 -0.089741699 1.4480001 2698018
-0.76946199 -0.090485416 1.46 2500385
-0.76936769 -0.091291107 1.473 1974811
-0.76915091 -0.092096798 1.4860001 1712409
-0.7693243 -0.09296447 1.5000001 1449237
-0.77038193 -0.093956091 1.516 1448467
-0.77229565 -0.095071658 1.534 1316883
-0.77403963 -0.096187234 1.552 1316883
-0.77610791 -0.097364791 1.5710001 1316113
-0.7779969 -0.098542333 1.59 1119504
-0.78019142 -0.099781871 1.6100001 922895
-0.7817173 -0.10095941 1.6290001 922895
-0.78353924 -0.10219894 1.649 922893
-0.78470218 -0.10337649 1.6680001 857100
-0.7847544 -0.10443009 1.6850001 857102
-0.78372431 -0.10535973 1.7 791309
-0.78209651 -0.10622741 1.7140001 857100
-0.7789818 -0.10690913 1.725 922893
-0.77442282 -0.10740495 1.733 922893
-0.76890409 -0.10777681 1.7390001 1053709
-0.76201648 -0.10796273 1.7420001 1119502
-0.75466782 -0.10808669 1.7440001 1053709
-0.74644434 -0.10808669 1.7440001 1053709
-0.73822081 -0.10808669 1.7440001 1053709
-0.72957873 -0.10802471 1.743 1053709
-0.72135991 -0.10802471 1.743 987916
-0.71314108 -0.10802471 1.743 922123
-0.70492226 -0.10802471 1.743 1118732
-0.69630378 -0.10796273 1.7420001 1184525
-0.68729973 -0.10783879 1.7400001 1118732
-0.67792422 -0.10765286 1.7370001 1053709
-0.66819143 -0.10740495 1.733 1185295
-0.65811551 -0.10709506 1.728 1053709
-0.64808673 -0.10678519 1.723 1250318
-0.63884795 -0.10659926 1.72 987916
-0.62963748 -0.10641333 1.7170001 987916
-0.62117928 -0.10635135 1.7160001 987916
-0.61308783 -0.10635135 1.7160001 987918
-0.60534889 -0.10641333 1.7170001 987918
-0.59760052 -0.1064753 1.7180001 1184527
-0.58949959 -0.1064753 1.7180001 1118734
-0.58139867 -0.1064753 1.7180001 1119502
-0.57296407 -0.10641333 1.7170001 1119502
-0.56453884 -0.10635135 1.7160001 1119504
-0.55612308 -0.10628937 1.715 1119504
-0.54803634 -0.10628937 1.715 1053711
-0.5399496 -0.10628937 1.715 1053711
-0.53217292 -0.10635135 1.7160001 1184527
-0.52499765 -0.10653728 1.7190001 1250320
-0.51779413 -0.10672321 1.7220001 1185297
-0.51056224 -0.10690913 1.725 1119504
-0.5033021 -0.10709506 1.728 1119504
-0.49572718 -0.10721903 1.7300001 1053711
-0.48841515 -0.10740495 1.733 1185297
-0.48052061 -0.10746693 1.7340001 1185297
-0.47288904 -0.10759088 1.7360001 1119504
-0.46470323 -0.10759088 1.7360001 1185297
-0.45625448 -0.1075289 1.7350001 1119504
-0.44729862 -0.10734297 1.7320001 1119504
-0.43837106 -0.10715704 1.7290001 1119504
-0.42897418 -0.10684717 1.7240001 1119504
-0.41938028 -0.1064753 1.7180001 1053711
-0.40960363 -0.10604147 1.7110001 1053711
-0.39989296 -0.10560764 1.7040001 1053711
-0.39047825 -0.10523578 1.6980001 987918
-0.38112015 -0.10486392 1.692 1119504
-0.37248027 -0.104678 1.6890001 1119504
-0.36430025 -0.10461602 1.6880001 1185297
-0.35676298 -0.10473996 1.6900001 1119504
-0.34961969 -0.10498787 1.6940001 1119504
-0.34243861 -0.10523578 1.6980001 1053711
-0.33502284 -0.10542171 1.7010001 1119504
-0.3271943 -0.10548368 1.702 1250320
-0.31916887 -0.10548368 1.702 1053711
-0.31096059 -0.10542171 1.7010001 1119504
-0.3027617 -0.10535973 1.7 1053711
-0.29457229 -0.10529776 1.6990001 1053711
-0.28656098 -0.10529776 1.6990001 1119504
-0.27871358 -0.10535973 1.7 1053711
-0.27117524 -0.10554566 1.7030001 1119504
-0.2636086 -0.10573159 1.7060001 1119504
-0.25616348 -0.10597949 1.71 1119504
-0.24868065 -0.10622741 1.7140001 1053711
-0.24130045 -0.10653728 1.7190001 1053711
-0.23373745 -0.10678519 1.723 1053711
-0.22600578 -0.10697111 1.7260001 1053711
-0.2182458 -0.10715704 1.7290001 1119504
-0.21033604 -0.107281 1.7310001 1119504
-0.20229062 -0.10734297 1.7320001 1053711
-0.19423577 -0.10740495 1.733 1119504
-0.18617149 -0.10746693 1.7340001 1119504
-0.17799513 -0.10746693 1.7340001 1119504
-0.16981876 -0.10746693 1.7340001 1119504
-0.1616424 -0.10746693 1.7340001 1053711
-0.15213847 -0.10653728 1.7190001 1119504
-0.14302738 -0.10579357 1.7070001 1119504
-0.13829939 -0.10839657 1.7490001 1119504
-0.12075754 -0.10064953 1.6240001 1250320
-0.111707 -0.099410005 1.6040001 1250320
-0.10414363 -0.099410005 1.6040001 1447699
-0.095074959 -0.097860597 1.5790001 1250320
-0.087351985 -0.09755072 1.5740001 1447699
-0.079930075 -0.09755072 1.5740001 1316883
-0.072508164 -0.09755072 1.5740001 1316883
-0.065086246 -0.09755072 1.5740001 1448469
-0.057664335 -0.09755072 1.5740001 1448469
-0.05024242 -0.09755072 1.5740001 1514262
-0.04282051 -0.09755072 1.5740001 1580055
-0.034161668 -0.09414202 1.5190001 1580055
-0.025914866 -0.090361461 1.4580001 1843227
-0.018778753 -0.089121938 1.4380001 2106399
-0.0071838549 -0.053361606 0.86100006 4672324
-0.0032836096 -0.056088563 0.90500003 4935496
0.00098158047 -0.055964611 0.90300006 5330254
0.005210503 -0.055654731 0.89800006 6186335
0.0094133066 -0.055468801 0.89500004 6515300
0.013618285 -0.055406824 0.89400005 9081227
0.017813833 -0.05534485 0.89300007 9804180
0.021975286 -0.055220895 0.89100003 10396064
0.026147258 -0.055158917 0.89000005 10528420
0.030309798 -0.055096943 0.88900006 10594213
0.03446291 -0.055034969 0.88800007 10660006
0.038606588 -0.054972988 0.88700002 10660006
0.042740837 -0.054911014 0.88600004 10660006
0.04686565 -0.054849036 0.88500005 10660006
0.051038709 -0.054849036 0.88500005 10725799
0.05514938 -0.054787062 0.88400006 10791592
0.059250619 -0.054725084 0.88300002 10660006
0.063342437 -0.054663107 0.88200003 10791592
0.067501344 -0.054663107 0.88200003 10857385
0.071660258 -0.054663107 0.88200003 10791592
0.075733207 -0.054601133 0.88100004 10791592
0.079887398 -0.054601133 0.88100004 10857385
0.084041603 -0.054601133 0.88100004 10857385
0.16584261 -0.093832135 1.5140001 11120559
0.17309587 -0.093894117 1.5150001 11055279
0.1813103 -0.094451897 1.524 11384244
0.18886751 -0.094637826 1.5270001 11252658
0.19670981 -0.094947711 1.5320001 11384244
0.20433301 -0.09513364 1.5350001 11581623
0.21184669 -0.095257595 1.5370001 11910590
0.21952179 -0.095443524 1.5400001 11911360
0.22663611 -0.095381543 1.539 12042946
0.23374102 -0.095319569 1.5380001 12240325
0.24114986 -0.095381543 1.539 12306118
0.24905239 -0.095629454 1.5430001 12240325
0.25715873 -0.095939331 1.5480001 12174532
0.2651414 -0.096187234 1.552 12174532
0.27298623 -0.096373163 1.5550001 12042946
0.28013828 -0.096311189 1.554 12042946
0.28654096 -0.096001305 1.549 12042946
0.29213771 -0.095443524 1.5400001 11845567
0.29745516 -0.094823763 1.5300001 11450809
0.30307657 -0.094327949 1.5220001 11384246
0.30821478 -0.093708187 1.5120001 11252660
0.31409299 -0.093336329 1.506 10989488
0.32034117 -0.093088426 1.5020001 11121072
0.32676962 -0.092902496 1.4990001 11120559
0.19687302 -0.054787062 0.88400006 11120559
0.20104137 -0.054787062 0.88400006 11054766
0.20497757 -0.054725084 0.88300002 11120559
0.20914121 -0.054725084 0.88300002 11120559
0.2142711 -0.054972988 0.88700002 11054766
0.21845359 -0.054972988 0.88700002 11054766
0.22238508 -0.054911014 0.88600004 11120559
0.22656286 -0.054911014 0.88600004 11120559
0.23074062 -0.054911014 0.88600004 11120559
0.2349184 -0.054911014 0.88600004 11186352
0.23909618 -0.054911014 0.88600004 11382961
0.24354853 -0.054972988 0.88700002 11448754
0.24773102 -0.054972988 0.88700002 11580340
0.25162947 -0.054911014 0.88600004 11711926
0.25551856 -0.054849036 0.88500005 11646133
0.25939816 -0.054787062 0.88400006 11646133
0.26326835 -0.054725084 0.88300002 11646133
0.26712912 -0.054663107 0.88200003 11711926
0.27067289 -0.054539155 0.88000005 11777719
0.27451006 -0.054477181 0.87900007 11776949
0.27865481 -0.054477181 0.87900007 11776947
0.28279957 -0.054477181 0.87900007 11776947
0.28694436 -0.054477181 0.87900007 11908533
0.29108912 -0.054477181 0.87900007 11776947
0.29523388 -0.054477181 0.87900007 11842740
0.29937866 -0.054477181 0.87900007 11908533
0.30386874 -0.054539155 0.88000005 11908533
0.30801821 -0.054539155 0.88000005 11974326
0.31216767 -0.054539155 0.88000005 11908533
0.31667662 -0.054601133 0.88100004 11974326
0.32119498 -0.054663107 0.88200003 12105655
0.32572275 -0.054725084 0.88300002 12039862
0.33026001 -0.054787062 0.88400006 11974069
0.33480665 -0.054849036 0.88500005 11974069
0.33936274 -0.054911014 0.88600004 11974069
0.34354052 -0.054911014 0.88600004 11908276
0.34811074 -0.054972988 0.88700002 11974069
0.35189605 -0.054911014 0.88600004 11974069
0.35607383 -0.054911014 0.88600004 11842483
0.36025161 -0.054911014 0.88600004 11842483
0.36442938 -0.054911014 0.88600004 11974322
0.36860716 -0.054911014 0.88600004 11974322
0.37320566 -0.054972988 0.88700002 11908529
0.37738815 -0.054972988 0.88700002 11908529
0.38157064 -0.054972988 0.88700002 12170931
0.38618803 -0.055034969 0.88800007 12039345
0.39037526 -0.055034969 0.88800007 12039345
0.39500678 -0.055096943 0.88900006 12105138
0.39919871 -0.055096943 0.88900006 11973552
0.40384439 -0.055158917 0.89000005 12039345
0.408041 -0.055158917 0.89000005 12039345
0.4127008 -0.055220895 0.89100003 12039092
0.41737005 -0.055282868 0.89200002 12039345
0.42204878 -0.05534485 0.89300007 12039345
0.42673689 -0.055406824 0.89400005 12105138
0.43143442 -0.055468801 0.89500004 12039092
0.4361414 -0.055530775 0.89600003 12236471
0.4408578 -0.055592749 0.89700001 12170678
0.44607982 -0.055716705 0.89900005 12170678
0.45081982 -0.055778682 0.90000004 12170678
0.45556921 -0.055840656 0.90100002 12170678
0.45981774 -0.055840656 0.90100002 12104885
0.46458131 -0.055902638 0.90200007 11973299
0.4693543 -0.055964611 0.90300006 12039092
0.47361225 -0.055964611 0.90300006 11710127
0.47839937 -0.056026585 0.90400004 11775920
0.48266202 -0.056026585 0.90400004 11710127
0.48692468 -0.056026585 0.90400004 11512748
0.49064398 -0.055964611 0.90300006 11315369
0.49490187 -0.055964611 0.90300006 7826548
0.76123244 -0.083915927 1.3540001 4342085
0.76818383 -0.0839779 1.355 3750203
0.77514482 -0.084039882 1.3560001 3683383
0.78153878 -0.084039882 1.3560001 3288627
0.78851384 -0.084101856 1.3570001 3092016
0.79491252 -0.084101856 1.3570001 2894637
0.80131125 -0.084101856 1.3570001 3090984
0.80651945 -0.0839779 1.355 3090984
0.81170887 -0.083853953 1.353 2434084
0.81748408 -0.083791979 1.3520001 2697509
0.82264042 -0.083668023 1.35 3025704
0.83084834 -0.083853953 1.353 2762532
0.83599061 -0.083729997 1.3510001 2696226
0.84236091 -0.083729997 1.3510001 2433567
1.1144702 -0.10994598 1.774 2434337
1.1310635 -0.11075167 1.7870001 2630944
1.1452287 -0.11130946 1.7960001 2565151
1.1581939 -0.11174329 1.8030001 2237213
1.1725194 -0.11230107 1.812 2500385
1.1849744 -0.11267294 1.8180001 2565921
1.1968296 -0.11298282 1.8230001 2565921
-0.8681823 -0.06768249 1.182 7570025
-0.86260891 -0.06768249 1.182 7701870
-0.8570354 -0.06768249 1.182 7636079
-0.85146189 -0.06768249 1.182 7570286
-0.84588838 -0.06768249 1.182 7701872
-0.84031487 -0.06768249 1.182 7570286
-0.83474135 -0.06768249 1.182 7767663
-0.82916784 -0.06768249 1.182 7635566
-0.57275337 -0.047068536 0.82200003 7635566
-0.5688774 -0.047068536 0.82200003 7964277
-0.56500143 -0.047068536 0.82200003 7767413
-0.5611254 -0.047068536 0.82200003 8095865
-0.55724943 -0.047068536 0.82200003 7766900
-0.5533734 -0.047068536 0.82200003 7964279
-0.54949743 -0.047068536 0.82200003 8292474
-0.85980594 -0.07524094 1.314 8555646
-0.85360998 -0.07524094 1.314 8621439
-0.84547937 -0.075069167 1.3110001 8555648
-0.8424986 -0.07535547 1.3160001 8753027
-0.83692867 -0.075412728 1.317 8621441
-0.83071858 -0.075412728 1.317 9081992
-0.82513458 -0.075469993 1.3180001 9805713
-0.81954104 -0.075527243 1.319 8554363
-0.81455487 -0.075641774 1.3210001 9079939
-0.80954969 -0.075756297 1.3230001 8948099
-0.80452567 -0.075870812 1.325 9014916
-0.80068785 -0.076099865 1.3290001 8620674
-0.79681218 -0.076328903 1.3330001 8818053
-0.79408491 -0.076672472 1.3390001 9014662
-0.79188943 -0.077073298 1.3460001 9014916
-0.79021156 -0.077531382 1.3540001 8423295
-0.78845817 -0.077989474 1.3620001 7897464
-0.78662938 -0.078447565 1.3700001 5659219
-0.78415561 -0.078848392 1.3770001 5789778
-0.7810511 -0.079191953 1.383 5460813
-0.77789003 -0.079535522 1.3890001 4868930
-0.77522767 -0.07993634 1.396 5397071
-0.77304995 -0.080394432 1.404 4277568
-0.77188855 -0.080967039 1.414 4211775
-0.77117401 -0.081596918 1.4250001 3947831
-0.77089214 -0.082284048 1.437 3026731
-0.77102894 -0.083028436 1.45 2697766
-0.77051604 -0.083715566 1.462 2500387
-0.76989001 -0.084402703 1.4740001 2039836
-0.76966852 -0.085147098 1.4870001 1777434
-0.76983714 -0.08594875 1.501 1383446
-0.77089012 -0.086864926 1.5170001 1317653
-0.77279913 -0.087895624 1.5350001 1316883
-0.7745384 -0.088926323 1.5530001 1119504
-0.77660185 -0.090014279 1.572 1185297
-0.77897555 -0.0911595 1.5920001 1119504
-0.78164512 -0.092361979 1.613 857102
-0.78363687 -0.093507208 1.6330001 857102
-0.78591508 -0.094709679 1.654 987918
-0.78705442 -0.095797643 1.6730001 922125
-0.78754878 -0.096828341 1.6910001 857102
-0.78695148 -0.097744517 1.7070001 791309
-0.7852906 -0.09854617 1.7210001 987916
-0.7825945 -0.099233299 1.733 1119502
-0.7788915 -0.099805906 1.743 1053709
-0.77332562 -0.10014948 1.7490001 1119502
-0.76726574 -0.10043578 1.7540001 922893
-0.75986046 -0.1005503 1.756 1053709
-0.75200844 -0.10060757 1.7570001 1053709
-0.74414694 -0.10066483 1.7580001 1053709
-0.73585743 -0.10066483 1.7580001 987916
-0.72756785 -0.10066483 1.7580001 1053709
-0.71927834 -0.10066483 1.7580001 1053709
-0.71058434 -0.10060757 1.7570001 1053709
-0.70189977 -0.1005503 1.756 987916
-0.69322467 -0.10049304 1.7550001 1052939
-0.68377852 -0.10032126 1.7520001 987916
-0.67436051 -0.10014948 1.7490001 1053709
-0.66459006 -0.099920437 1.7450001 987916
-0.65485722 -0.099691384 1.7410001 987916
-0.64516217 -0.099462345 1.7370001 987916
-0.63623822 -0.099347822 1.7350001 1053709
-0.62769514 -0.099290565 1.7340001 1119502
-0.61951882 -0.099290565 1.7340001 1119502
-0.61169505 -0.099347822 1.7350001 1053709
-0.60386175 -0.09940508 1.7360001 1053711
-0.59636223 -0.099519603 1.738 1184527
-0.58850545 -0.099576868 1.7390001 987918
-0.58030546 -0.099576868 1.7390001 1119504
-0.57210553 -0.099576868 1.7390001 1119504
-0.5639056 -0.099576868 1.7390001 1119504
-0.55570567 -0.099576868 1.7390001 1119504
-0.54782057 -0.099634133 1.7400001 1119504
-0.54023618 -0.099748649 1.7420001 1184527
-0.5329383 -0.099920437 1.7450001 1250320
-0.52561212 -0.10009221 1.748 1447699
-0.51825768 -0.100264 1.751 1185295
-0.5105837 -0.10037852 1.7530001 1119504
-0.50289088 -0.10049304 1.7550001 1185297
-0.49517912 -0.10060757 1.7570001 1185297
-0.48717144 -0.10066483 1.7580001 1185297
-0.47915429 -0.10072208 1.7590001 1185297
-0.47086003 -0.10072208 1.7590001 1185297
-0.46203983 -0.10060757 1.7570001 1053711
-0.45323852 -0.10049304 1.7550001 1185297
-0.44420248 -0.10032126 1.7520001 1119504
-0.43469715 -0.10003495 1.7470001 1119504
-0.42523894 -0.099748649 1.7420001 1053711
-0.41558847 -0.09940508 1.7360001 1119504
-0.40575993 -0.099004254 1.7290001 1053711
-0.39599741 -0.098603435 1.7220001 1185297
-0.38652611 -0.098259866 1.7160001 1119504
-0.37777305 -0.098088078 1.7130001 1119504
-0.36947989 -0.09803082 1.7120001 1185297
-0.36182946 -0.098145343 1.7140001 1185297
-0.35436657 -0.098317124 1.7170001 1185297
-0.34707704 -0.09854617 1.7210001 1185297
-0.33955285 -0.09871795 1.7240001 1316113
-0.33161587 -0.098775208 1.725 1316113
-0.32366949 -0.098832473 1.7260001 1119504
-0.31534803 -0.098775208 1.725 1185297
-0.30703601 -0.09871795 1.7240001 1250320
-0.29890677 -0.09871795 1.7240001 1119504
-0.29077759 -0.09871795 1.7240001 1185297
-0.2828123 -0.098775208 1.725 1185297
-0.27515608 -0.098946996 1.728 1316883
-0.26747155 -0.099118777 1.7310001 1316883
-0.26005837 -0.09940508 1.7360001 1119504
-0.25259802 -0.099691384 1.7410001 1185297
-0.2450905 -0.099977694 1.7460001 1119504
-0.2374002 -0.10020674 1.7500001 1185297
-0.22967215 -0.10043578 1.7540001 1185297
-0.22190639 -0.10066483 1.7580001 1250320
-0.21385989 -0.10077935 1.7600001 1119504
-0.2057945 -0.10089387 1.7620001 1119504
-0.1975982 -0.10095114 1.7630001 1185297
-0.18939243 -0.10100839 1.7640001 1250320
-0.18148524 -0.10123744 1.7680001 1316113
-0.1730506 -0.10118017 1.7670001 1053711
-0.16471863 -0.10118017 1.7670001 1119504
-0.15736021 -0.10181005 1.7780001 1119504
-0.15023321 -0.10266896 1.7930001 1185297
-0.14249028 -0.10318431 1.802 1185297
-0.13548045 -0.10432953 1.8220001 1250320
-0.12737663 -0.10473036 1.8290001 1250320
-0.11862246 -0.10461584 1.8270001 1250320
-0.095074959 -0.090415113 1.5790001 1316113
-0.087351985 -0.090128802 1.5740001 1447699
-0.079930075 -0.090128802 1.5740001 1316883
-0.072508164 -0.090128802 1.5740001 1316883
-0.065086246 -0.090128802 1.5740001 1316883
-0.057664335 -0.090128802 1.5740001 1448469
-0.05024242 -0.090128802 1.5740001 1514262
-0.04282051 -0.090128802 1.5740001 1514262
-0.034161668 -0.086979449 1.5190001 1645848
-0.025914866 -0.083486527 1.4580001 1908767
-0.018778753 -0.082341306 1.4380001 2237985
-0.0071838549 -0.049301717 0.86100006 4606533
-0.0031239646 -0.049301717 0.86100006 5067084
0.00098158047 -0.051706679 0.90300006 5593428
0.0052047004 -0.051363111 0.89700001 6317668
0.009423824 -0.051305849 0.89600003 6580840
0.013618285 -0.05119133 0.89400005 9212043
0.017813833 -0.051134069 0.89300007 9870743
0.021975286 -0.051019546 0.89100003 10396834
0.026147258 -0.050962284 0.89000005 10528420
0.030309798 -0.050905023 0.88900006 10594213
0.03446291 -0.050847765 0.88800007 10594213
