# .PCD v0.7 - Point Cloud Data file format
VERSION 0.7
FIELDS x y z rgb
SIZE 4 4 4 4
TYPE F F F U
COUNT 1 1 1 1
WIDTH 1200
HEIGHT 1
VIEWPOINT 0 0 0 1 0 0 0
POINTS 1200
DATA ascii
-0.68649375 0.3052004 1.3385 5923156
0.10805912 0.30639675 1.33 6115649
-0.70514035 0.3162787 1.332 5725524
-0.69465864 0.31407866 1.336 6054231
-0.68675017 0.31478393 1.3390001 6317403
0.10862785 0.31431374 1.337 5853245
-0.97572595 0.32692251 1.337 5529157
-0.70514035 0.32569993 1.332 5921874
-0.69452924 0.32346702 1.33575 6053458
-0.68675017 0.32425469 1.3390001 6184787
-0.83766103 0.33536565 1.3330001 5790281
-0.70514035 0.33512112 1.332 5987667
-0.69452924 0.3360652 1.33575 6250838
-0.68675017 0.33372539 1.3390001 6185047
-0.90790361 0.34402502 1.33 5724744
-0.85594267 0.34583566 1.337 5593928
-0.70566976 0.34480101 1.3330001 5856337
-0.69465864 0.345577 1.336 6316373
-0.68675017 0.34319609 1.3390001 6250580
-0.91234082 0.3551653 1.3365002 5659461
-0.86410236 0.35475844 1.335 6382159
-0.71349102 0.35656777 1.33 5068106
-0.70593446 0.35436332 1.3335001 5921617
-0.69504917 0.3552264 1.33675 5986896
-0.68675017 0.35266683 1.3390001 6512981
-0.91268206 0.36474884 1.337 5528389
-0.88181931 0.36502165 1.3380001 5330758
-0.87027544 0.36283916 1.33 5264711
-0.71429569 0.36638877 1.3315001 5198410
-0.70619911 0.3639304 1.3340001 5921618
-0.6954397 0.36488524 1.3375001 6250069
-0.71743143 0.37580526 1.3315001 5593423
-0.70686144 0.37371618 1.33525 6184532
-0.69582909 0.37455583 1.3382502 6249554
0.1019408 0.37594634 1.332 5984063
-0.72257596 0.3862215 1.3313334 6053717
-0.71371579 0.38709339 1.3343334 5395274
-0.70638436 0.38557211 1.3363333 6250841
-0.6988554 0.38394892 1.3380001 6053204
0.1019408 0.38536757 1.332 5983806
-0.7328558 0.39449242 1.3310001 6184790
-0.72425568 0.39493698 1.3325 5987925
-0.7132917 0.39582616 1.3355 5723726
-0.70463741 0.39627072 1.337 6315352
-0.6988554 0.39341259 1.3380001 5987152
0.1019408 0.39478877 1.332 6115136
-0.80804789 0.40857369 1.3360001 6775892
-0.78306454 0.40076852 1.3310001 5723719
-0.77423161 0.40106958 1.332 5921613
-0.76481432 0.40637812 1.3356667 6184788
-0.75490713 0.403469 1.3330001 6184532
-0.74498969 0.40586844 1.334 6184788
-0.73623413 0.40356937 1.3333334 6250581
-0.72534394 0.40496984 1.3345001 5987924
-0.71329165 0.4052721 1.3355 5592398
-0.70463741 0.4057273 1.337 6381402
-0.6988554 0.40603077 1.3380001 6184789
0.1019408 0.40420997 1.332 6049342
-0.82380414 0.41487336 1.3360001 6053452
-0.75563729 0.41549444 1.3380001 6053202
-0.74533832 0.41502863 1.3365 5922131
-0.73560882 0.41487336 1.3360001 6250840
-0.72588873 0.41471809 1.3355 5594192
-0.71355999 0.41487336 1.3360001 5527631
-0.70463741 0.41518387 1.337 6316376
-0.6988554 0.41549444 1.3380001 6316374
0.096019082 0.41518387 1.337 5654331
-0.74617481 0.42495924 1.3380002 6250582
-0.73615938 0.42464042 1.337 6184787
-0.72615933 0.42432284 1.3360001 5724750
-0.71342582 0.42424282 1.33575 5724238
-0.70463741 0.42464042 1.337 6316118
-0.6988554 0.42495805 1.3380001 6250582
0.095911361 0.42416757 1.3355 5785913
-0.7430191 0.43442169 1.3380001 6382167
-0.73615938 0.43409699 1.337 5987666
-0.72474855 0.43565419 1.3353333 5658703
-0.71590507 0.43643045 1.3345001 5395273
-0.70672971 0.43659395 1.335 6249811
-0.6988554 0.43442169 1.3380001 6512983
0.10178774 0.43495995 1.33 6049342
-0.74357444 0.44106022 1.3390001 6512983
-0.73671001 0.44388536 1.3380001 6118996
-0.72721076 0.4442718 1.336 5855825
-0.71563691 0.44570348 1.3340001 5395274
-0.70620155 0.44570348 1.3340001 6249813
-0.69543856 0.44371831 1.3375001 6381398
-0.73726064 0.45368785 1.3390001 6185047
-0.72529125 0.4548842 1.3363334 5658446
-0.71563691 0.45513886 1.3340001 5723211
-0.70606852 0.4550541 1.3337501 6118741
-0.69478804 0.45590588 1.3362501 6381141
-0.73094684 0.46000168 1.3390001 6052432
-0.72355062 0.46561894 1.337 5395272
-0.71617329 0.46492243 1.335 5986124
-0.70620155 0.46457422 1.3340001 6249556
-0.69491744 0.4654448 1.3365 6512985
-0.72436237 0.47560966 1.3385 5131843
-0.71670979 0.47472018 1.3360001 5920333
-0.70673084 0.47436485 1.335 6446421
-0.69543856 0.47525436 1.3375 6250325
-0.72409177 0.48489448 1.3380001 5132098
-0.71670979 0.48416969 1.3360001 5855051
-0.70699441 0.48398846 1.3355 6315090
-0.6956985 0.48489448 1.3380001 6577493
-0.73094684 0.49788454 1.3390001 5855821
-0.72382116 0.49417222 1.3375001 5197379
-0.71644151 0.4934333 1.3355 5789773
-0.70686257 0.49334151 1.33525 6118482
-0.69556791 0.49426517 1.3377501 6249553
0.10224693 0.49046937 1.3360001 6245437
-0.71096182 -0.54159564 1.3490001 8358017
-0.70727259 -0.54511321 1.342 8358015
-0.71253705 -0.53166378 1.34 8292224
-0.72207439 -0.52135074 1.3460001 8095613
-0.71572757 -0.52769756 1.3460001 8226431
-0.75324845 -0.51462126 1.345 8292222
-0.73640573 -0.51615179 1.3490001 8095613
-0.72517413 -0.5190267 1.34 8161406
0.35768053 -0.4525421 1.3490001 12105659
-0.7567668 -0.24101146 1.34 7306097
-0.74857229 -0.24245034 1.348 7241071
-0.75268847 -0.23539351 1.3440001 7043179
-0.74468505 -0.23486808 1.3410001 7044206
-0.72625649 -0.23504321 1.342 7569782
-0.75212836 -0.22888571 1.3430001 7240558
-0.74635106 -0.22905613 1.3440001 7174765
-0.85090309 -0.21082538 1.3490001 7306349
-0.84329009 -0.21051283 1.3470001 7108970
-0.67279607 -0.21082538 1.3490001 7896953
-0.66594106 -0.2106691 1.348 7699574
-0.65958482 -0.2106691 1.348 7962746
0.090318613 -0.21670334 1.3460001 2106916
0.10895284 -0.21589835 1.3410001 4475464
0.1157059 -0.21670334 1.3460001 5265233
-0.67279607 -0.20446442 1.3490001 8159353
-0.66544706 -0.20416129 1.3470001 7831158
-0.65958482 -0.20431285 1.348 7765367
-0.67279607 -0.19810344 1.3490001 7896953
-0.66415012 -0.19381385 1.3486667 7896951
-0.65958482 -0.19795659 1.348 7962744
-0.67572713 -0.14080253 1.3485 7568242
-0.66594106 -0.14075033 1.348 7699572
0.29341689 -0.14054151 1.3460001 10463914
-0.72314727 -0.13439408 1.348 7109745
-0.71732277 -0.13449378 1.3490001 7306610
-0.68551803 -0.13449378 1.3490001 7502706
-0.67522609 -0.13434422 1.3475001 7699829
-0.66276062 -0.13439408 1.348 7765365
0.29615664 -0.13399528 1.3440001 10398121
-0.72073323 -0.12444407 1.3435001 7109232
-0.71378613 -0.12576707 1.3463335 7174768
-0.70584601 -0.12374172 1.3473334 7240305
-0.69480181 -0.1249072 1.3485001 7436914
-0.6847558 -0.12481457 1.3475001 7436657
-0.67447448 -0.12467563 1.3460001 7567986
-0.66495305 -0.12467445 1.3460001 7699829
-0.65934014 -0.12481457 1.3475001 7436657
0.29450732 -0.12318911 1.3413334 10529706
0.30576938 -0.12453434 1.3445001 10529706
-0.72444308 -0.11502589 1.3445001 7043183
-0.71413231 -0.11489756 1.3430001 7109233
-0.70594382 -0.11511144 1.3455 7174512
-0.69402897 -0.11523978 1.3470001 7437425
-0.68450171 -0.11523978 1.3470001 7502195
-0.6742239 -0.11511144 1.3455 7633779
-0.66445899 -0.11506867 1.345 7567986
-0.65640438 -0.11532533 1.348 7568499
0.29954097 -0.11506867 1.345 10661293
-0.73531395 -0.10888825 1.3470001 7043179
-0.72540832 -0.10655706 1.3443333 7108716
-0.71588707 -0.10429236 1.3423333 7108718
-0.70554972 -0.10553648 1.3447502 7174766
-0.69351375 -0.105634 1.3460001 7305583
-0.68373942 -0.10559593 1.3455 7436658
-0.67384744 -0.10553648 1.3447502 7436914
-0.66445899 -0.1055555 1.345 7502450
-0.65615964 -0.10575172 1.3475001 7436915
0.2925449 -0.10848405 1.342 10792879
-0.72896242 -0.096185178 1.3470001 7042925
-0.71623045 -0.095756732 1.3410001 6977132
-0.70463097 -0.095899537 1.3430001 7108719
-0.69616956 -0.096042357 1.345 7371892
-0.68665636 -0.096042357 1.345 7370865
-0.67347109 -0.095970951 1.3440001 7370609
-0.66445899 -0.096042357 1.345 7305329
-0.65640438 -0.096256584 1.348 7305329
-0.70287824 -0.087368615 1.3416667 7371376
-0.69539315 -0.086433873 1.3435001 7371121
-0.68665636 -0.086529195 1.345 7304301
-0.6743474 -0.086575679 1.3457501 7502193
-0.66544706 -0.086655505 1.3470001 7304815
-0.65958482 -0.089900322 1.348 7305327
-0.70068347 -0.073651642 1.3415 7305840
-0.69388145 -0.072768889 1.3446668 7107947
-0.68644637 -0.074992724 1.3466667 7305071
-0.67686892 -0.075105667 1.3486667 7370607
-0.7009446 -0.064188339 1.342 7240306
-0.69351137 -0.064379662 1.3460001 6976619
-0.68551803 -0.064523153 1.3490001 7173741
-0.71253705 -0.051455621 1.34 7108970
-0.70449913 -0.0547252 1.34275 7108974
-0.69415605 -0.054909788 1.3472501 6976107
-0.71622807 -0.045170777 1.3410001 6780521
-0.70568031 -0.045305513 1.345 7108719
-0.69428539 -0.045389727 1.3475001 6779239
-0.68551803 -0.045440253 1.3490001 7304816
-0.67915702 -0.045440253 1.3490001 7304816
-0.73340327 -0.035748899 1.3435 6517349
-0.72403485 -0.035756145 1.34375 6846056
-0.71519583 -0.035789996 1.345 6911593
-0.70646852 -0.035831094 1.3465002 7173995
-0.69415718 -0.03585282 1.3472501 6844519
-0.6847558 -0.035860062 1.3475001 7107435
-0.67522371 -0.035861243 1.3475001 7173229
-0.66594106 -0.032694064 1.348 7370607
-0.73531395 -0.026318276 1.3470001 6714214
-0.72578663 -0.026318276 1.3470001 6780008
-0.7162593 -0.026318276 1.3470001 6911593
-0.70673203 -0.026318276 1.3470001 7108202
-0.69377255 -0.026308507 1.3465002 6910056
-0.68348533 -0.026279198 1.345 7107435
-0.67422152 -0.026288968 1.3455 7041898
-0.66544706 -0.026318276 1.3470001 6910569
-0.73640573 -0.016815903 1.3490001 6845288
-0.72738475 -0.017862812 1.348 6845288
-0.71679103 -0.016803436 1.348 6911081
-0.70673203 -0.016790971 1.3470001 7108204
-0.69668716 -0.016778506 1.3460001 6778983
-0.68640232 -0.016759807 1.3445001 6976106
-0.67372048 -0.016759807 1.3445001 7041642
-0.66544706 -0.016790971 1.3470001 6910313
-0.73004472 -0.0040939692 1.3490001 6779749
-0.72314727 -0.0040909345 1.348 6713956
-0.71679103 -0.0040909345 1.348 6976615
-0.70647085 -0.0040863827 1.3465002 7107945
-0.69616956 -0.0040818299 1.345 6844517
-0.68601888 -0.0040774471 1.34375 7041640
-0.67371929 -0.0040791337 1.3445002 6976104
-0.66594112 -0.0040885769 1.348 6844518
-0.73004472 0.0054474804 1.3490001 6845028
-0.72314727 0.0054434421 1.348 6713442
-0.71679103 0.0054434421 1.348 6845030
-0.70647085 0.0054373853 1.3465002 6910824
-0.69616956 0.0054313275 1.345 6581604
-0.68640232 0.0054293089 1.3445001 7041639
-0.6744709 0.0054353662 1.3460001 7041383
-0.72368377 0.01498893 1.3490001 6582884
-0.71679103 0.014977818 1.348 6779493
-0.70647085 0.014961151 1.3465002 6845286
-0.69668716 0.014955596 1.3460001 6778725
-0.68665636 0.014944485 1.345 6975847
-0.67522258 0.014973441 1.3475001 6975846
-0.73004472 0.024530379 1.3490001 6582626
-0.72314727 0.024512194 1.348 6648419
-0.7162593 0.024494011 1.3470001 6779235
-0.70647085 0.024484918 1.3465002 6845030
-0.69616956 0.024457641 1.345 6778724
-0.68665636 0.024457641 1.345 6779237
-0.67522138 0.024503103 1.3475001 6844517
-0.73004472 0.034071829 1.3490001 6451296
-0.72314727 0.034046572 1.348 6451297
-0.7162593 0.034021314 1.3470001 6385248
-0.70581555 0.033976525 1.34525 6647650
-0.69539315 0.033931736 1.3435001 6778211
-0.68589061 0.033931736 1.3435001 6975331
-0.67446971 0.03399488 1.3460001 6844002
-0.73640573 0.046793759 1.3490001 6319968
-0.72605717 0.046741731 1.3475001 6385761
-0.71572757 0.046689697 1.3460001 6385249
-0.70502853 0.046611059 1.34375 6515808
-0.69435799 0.046532422 1.3415 6778209
-0.68435901 0.046497732 1.3405001 6778724
-0.67346752 0.04661914 1.344 6844259
-0.73640573 0.056335211 1.3490001 6582626
-0.72605717 0.056272566 1.3475001 6319967
-0.71572757 0.056209929 1.3460001 6188381
-0.70463562 0.056084648 1.3430001 6319197
-0.69358152 0.055959363 1.34 6647136
-0.6727159 0.056063764 1.3425001 6778978
-0.66643512 0.056335211 1.3490001 6909538
-0.73640573 0.065876663 1.3490001 6187868
-0.72605717 0.065803409 1.3475001 6319711
-0.71546167 0.065704562 1.3455 6188125
-0.70463568 0.065583654 1.3430001 6253405
-0.69358152 0.065437153 1.34 6778209
-0.6727159 0.065559246 1.3425001 6647136
-0.66618812 0.065851063 1.3485 6646880
-0.74276668 0.075418115 1.3490001 6187868
-0.73585981 0.075362198 1.348 6385247
-0.72551841 0.075278342 1.3465002 6253661
-0.71519578 0.075194478 1.345 6319456
-0.70437211 0.075054713 1.3425 6187870
-0.69358152 0.074914947 1.34 6778724
-0.67462593 0.074914947 1.34 6647136
-0.66762531 0.075194478 1.345 6646366
-0.74539536 0.08489541 1.348 6122075
-0.73504102 0.084800929 1.3465002 6122589
-0.72524899 0.084769443 1.3460002 6253918
-0.71492994 0.084674969 1.3445001 6385504
-0.70411098 0.084518701 1.342 6253149
-0.69358152 0.084392741 1.34 6581090
-0.67462593 0.084392741 1.34 6515552
-0.66737711 0.084674969 1.3445001 6712417
-0.74373531 0.094220787 1.345 6056282
-0.73422211 0.094220787 1.345 6122075
-0.72417015 0.094150744 1.3440001 6581856
-0.71413231 0.094080687 1.3430001 6516063
-0.70384747 0.093975604 1.3415 6450014
-0.66663259 0.094080687 1.3430001 6449759
-0.74496269 0.10346048 1.3415 5990488
-0.73574847 0.10350022 1.342 6122330
-0.72450638 0.10249776 1.3426666 6253916
-0.71588707 0.10458215 1.3423333 6253405
-0.70700908 0.10346283 1.3415 6384477
-0.69989997 0.10334832 1.34 6055257
-0.6663844 0.10353996 1.3425 6646368
-0.73149264 0.11282612 1.34 6254174
-0.72544473 0.11602748 1.3405001 6187868
-0.71649754 0.11611404 1.3415 6253661
-0.70674556 0.11607194 1.3410001 6581341
-0.69989997 0.11598538 1.34 6252376
-0.6665079 0.11622401 1.3427501 6711645
-0.72517413 0.12546317 1.34 6187868
-0.71649629 0.12560362 1.3415 6187356
-0.70358396 0.12555681 1.3410001 6580314
-0.69358152 0.12546317 1.34 6842973
-0.67462593 0.12546317 1.34 6646364
-0.66762531 0.12593132 1.345 6645853
-0.72517413 0.13494097 1.34 6187868
-0.71649635 0.13509202 1.3415 6121818
-0.7041086 0.13514237 1.342 6252378
-0.69435799 0.1350932 1.3415 6646366
-0.68499655 0.13511896 1.34175 6646366
-0.6735934 0.13537072 1.3442501 6515037
-0.66594106 0.13256846 1.348 6646366
-0.72517413 0.14441876 1.34 6187868
-0.71649629 0.14458042 1.3415 6187868
-0.70436978 0.14468819 1.3425 6383451
-0.69513434 0.14474209 1.3430001 6646366
-0.68588942 0.14479598 1.3435001 6580572
-0.674972 0.14517319 1.3470001 6580572
-0.75212836 0.15107477 1.3430001 5924696
-0.74440742 0.15395516 1.3405001 5990489
-0.73359889 0.15494962 1.34 6318684
-0.72517413 0.15389654 1.34 6252891
-0.71649629 0.15406883 1.3415 6252893
-0.70436978 0.15418367 1.3425 6251609
-0.69513434 0.1542411 1.3430001 6580574
-0.68639994 0.15441337 1.3445001 6515038
-0.67547309 0.15481535 1.348 6580573
-0.75585949 0.16386203 1.3440001 6121303
-0.74496269 0.16672121 1.3415 6121304
-0.73520017 0.16665789 1.3410001 5990232
-0.72571534 0.16665789 1.3410001 6122075
-0.71649635 0.16672003 1.3415 6121562
-0.70533735 0.16576815 1.3423333 6055256
-0.69513434 0.16374011 1.3430001 6384479
-0.68665403 0.16398396 1.345 6384220
-0.67815018 0.16422781 1.3470001 6579803
-0.75156832 0.17627409 1.342 5923924
-0.74524033 0.17627409 1.342 6252891
-0.73520017 0.17614275 1.3410001 6252891
-0.72571534 0.17614275 1.3410001 6252891
-0.71623045 0.17614275 1.3410001 6252634
-0.703228 0.17420699 1.3423333 6251866
-0.69513434 0.17323913 1.3430001 6383194
-0.6867823 0.17352995 1.3452501 6514780
-0.67865354 0.17388409 1.348 6448987
-0.75386745 0.18686764 1.3423334 6054998
-0.74468505 0.18562762 1.3410001 6187097
-0.7349261 0.18555723 1.3405001 6055511
-0.72544473 0.18555723 1.3405001 6187097
-0.71623051 0.18562764 1.3410001 6186842
-0.70397681 0.18573084 1.34175 6251608
-0.69513434 0.18590447 1.3430001 6317914
-0.68716455 0.18631975 1.3460002 6448730
-0.67915702 0.18673503 1.3490001 6448987
-0.75417233 0.19511247 1.3410001 5989460
-0.74412972 0.19496697 1.34 5989719
-0.73465192 0.19496697 1.34 6121047
-0.72517413 0.19496697 1.34 6120790
-0.71596223 0.19503972 1.3405001 5989717
-0.70384508 0.19518521 1.3415 6251608
-0.69513434 0.19540347 1.3430001 6514780
-0.68665403 0.19569448 1.345 6579803
-0.67865354 0.19613096 1.348 6185815
-0.71569633 0.20128551 1.34 6120794
-0.70332044 0.20136061 1.3405001 6252123
-0.69603276 0.205598 1.3406668 6383452
-0.68537891 0.20482385 1.3425001 6317657
-0.67586356 0.20651972 1.3466667 6382680
-0.6809445 0.21392258 1.34 6251608
-0.67346632 0.21456116 1.3440001 6317401
0.10887159 0.21392258 1.34 5787454
-0.81032735 0.227405 1.345 6120274
-0.80338752 0.22723593 1.3440001 6186067
-0.79645705 0.22706684 1.3430001 6186065
-0.6727159 0.220652 1.3425001 6316632
-0.66706389 0.22545533 1.3460001 6185045
0.10605672 0.22416119 1.3445001 5852476
-0.81424075 0.2393752 1.3410001 6054481
-0.66801888 0.23562472 1.3436667 6316374
0.10301226 0.23708725 1.3460001 5655355
-0.6668992 0.24443631 1.3456668 6381909
0.093666852 0.2438921 1.3485 4799270
-0.81666946 0.2527734 1.345 6185813
-0.8085199 0.25853756 1.342 6580055
-0.66787231 0.25603962 1.3455 6316374
0.087006286 0.25576359 1.3440001 4404252
-0.81153238 0.26585239 1.3470001 6777429
-0.66787231 0.26555634 1.3455 6382167
0.084034182 0.26585239 1.3470001 4731934
-0.67318469 0.27527741 1.3413334 6381653
-0.66739321 0.27425686 1.3466667 6381910
0.084096566 0.27558649 1.348 4732191
-0.81153238 0.28490698 1.3470001 6185038
-0.80791748 0.28996113 1.3410001 6185040
-0.67352039 0.28595719 1.342 6250839
-0.91146207 0.29388899 1.3445001 5461571
-0.6809445 0.29606342 1.34 6447958
-0.67291206 0.29505411 1.3449999 6316373
0.096449986 0.29039359 1.3430001 5523508
0.10285918 0.29378322 1.3440001 5786683
-0.91451275 0.3044129 1.3490001 5725514
-0.81606233 0.30328462 1.3440001 6907991
-0.68145269 0.30576926 1.3410001 6316631
-0.67536002 0.30577472 1.3456668 6250325
-0.82117587 0.31548917 1.342 6053452
-0.68145269 0.31525412 1.3410001 6054229
-0.67424512 0.31470105 1.3476667 6185045
-0.97812247 0.32985678 1.3490001 5594180
-0.8328284 0.32582283 1.3455 5856075
-0.68170679 0.3248589 1.3415 6250580
-0.67714322 0.32570761 1.345 6250323
0.10952158 0.32643649 1.348 5919040
-0.97739738 0.33596849 1.348 5397573
-0.84964162 0.33571929 1.3470001 5856075
-0.68145269 0.33422387 1.3410001 6316633
-0.67496967 0.33571926 1.3470001 6315603
-0.97522211 0.34156287 1.345 5726284
-0.91451275 0.34893966 1.3490001 5528137
-0.86869621 0.34842235 1.3470001 5594182
-0.85154474 0.34029314 1.34 5856330
-0.68145269 0.34370869 1.3410001 6250581
-0.67496961 0.34524655 1.3470001 6118994
-0.91451275 0.35530064 1.3490001 5265735
-0.87439811 0.35451049 1.3460001 5922377
-0.68372822 0.35749686 1.3413334 6118225
-0.67714322 0.35424709 1.345 6381395
-0.9134959 0.36443287 1.3475001 5331010
-0.90209293 0.36556727 1.34 5067838
-0.89428163 0.36624929 1.3425 5264962
-0.87878191 0.36005303 1.3430001 5527365
-0.68461192 0.36584008 1.3410001 6118225
-0.67739499 0.36389667 1.3455 6118225
-0.68524945 0.37567538 1.34225 6052690
-0.6776467 0.37355098 1.3460001 5986639
-0.69358152 0.38452283 1.34 6578776
-0.68563294 0.3853837 1.3430001 6249811
-0.67840183 0.38349926 1.3475001 6380371
-0.69358152 0.39400065 1.34 6118224
-0.68588704 0.39502972 1.3435001 6184531
-0.67890525 0.39650106 1.3485 6118226
-0.77572238 0.40979695 1.34 5921614
-0.69358152 0.40663767 1.34 6315604
-0.68588704 0.40453228 1.3435 6052691
-0.67915702 0.40618837 1.3490001 6315604
0.09688089 0.40618837 1.3490001 5785397
-0.82362348 0.4179787 1.3460001 6315854
-0.80219197 0.41040859 1.342 6709329
-0.79329073 0.41071442 1.3430001 6051658
-0.78525078 0.41465944 1.3455 5855307
-0.77516115 0.41751289 1.3445001 5921357
-0.76308531 0.41611549 1.34 6250581
-0.69358152 0.41611549 1.34 6316374
-0.68639755 0.414343 1.3445001 6184018
-0.67915702 0.41254935 1.3490001 6249300
0.093484953 0.41481239 1.3460001 5127726
-0.8356958 0.42401022 1.345 5987143
-0.77284896 0.4243255 1.3460001 6118223
-0.76479375 0.42337975 1.3430001 6185043
-0.7570492 0.42575324 1.3405001 6053460
-0.69358152 0.42559326 1.34 6382167
-0.68719894 0.4258059 1.344 6250323
0.09045282 0.42495599 1.348 4665889
-0.77399731 0.43131223 1.348 6315606
-0.76564795 0.43336344 1.3445001 6052946
-0.75417233 0.43539572 1.3410001 5987668
-0.69358152 0.43507105 1.34 6512981
-0.68559623 0.43457887 1.3450001 6316116
0.093484953 0.43383867 1.3460001 5324335
-0.76650214 0.44336596 1.3460001 6250840
-0.75487584 0.44529706 1.34225 6250582
-0.74412972 0.44770813 1.34 6184788
-0.68588585 0.44570881 1.3435001 6315607
-0.76514584 0.45439422 1.3473334 6119252
-0.75268847 0.45538199 1.3440001 6185045
-0.74468505 0.45436549 1.3410001 6119254
-0.68563062 0.45504314 1.3430001 6184277
-0.67915702 0.45389563 1.3490001 6052434
-0.76184958 0.46343708 1.3490001 6185045
-0.75464857 0.46610224 1.3475001 6184788
-0.7469064 0.46523631 1.345 6184788
-0.73643917 0.4650203 1.3413334 6184275
-0.68563062 0.46454215 1.3430001 6381398
-0.67915702 0.46343708 1.3490001 6380884
-0.74401534 0.47492358 1.3455001 6053203
-0.73203856 0.47649682 1.3410001 5856081
-0.68588704 0.47421759 1.3435 6249812
-0.75492859 0.48851851 1.348 6184788
-0.74401414 0.48443907 1.3455001 6184788
-0.73203856 0.4859817 1.3410001 6184788
-0.68614113 0.48390019 1.3440001 6381139
0.10270612 0.48318011 1.342 6114363
-0.76128483 0.49487478 1.348 6052430
-0.7538085 0.49414054 1.3460001 6184016
-0.746351 0.49657261 1.3440001 6316372
-0.73625565 0.49441266 1.3410001 5987409
-0.6865167 0.49502453 1.3426666 6446934
-0.67915702 0.49524191 1.3490001 6446675
0.09652181 0.4997437 1.3440001 6114362
-0.76389819 0.5008592 1.3470001 6053457
-0.75324845 0.50011551 1.345 5921871
-0.68348533 0.50011551 1.345 6184018
-0.67915702 0.50160289 1.3490001 6315604
0.083971791 0.50048739 1.3460001 4862491
0.09045282 0.50123101 1.348 4995108
-0.70799589 -0.55378675 1.3555 8227715
-0.71359694 -0.5340215 1.3540001 8358017
-0.71998149 -0.52444941 1.3540001 8292222
-0.78031337 -0.51356983 1.3590001 8096126
-0.7502383 -0.51691699 1.3510001 8095097
-0.7444185 -0.51729965 1.3520001 8226683
-0.73220938 -0.51768225 1.353 8161408
-0.72797543 -0.51921272 1.3570001 8161408
-0.78962791 -0.50492257 1.353 8030587
-0.80357355 -0.49289039 1.355 7964281
-0.78209031 -0.48506501 1.3510001 8226429
-0.76580286 -0.47407228 1.3560001 7700855
-0.76693231 -0.46836808 1.358 7767161
0.36512092 -0.45388395 1.353 12040123
-0.66496718 -0.32132623 1.3590001 8357504
-0.6562615 -0.32338345 1.3586668 8225918
-0.66496718 -0.3149181 1.3590001 8291711
-0.65855908 -0.3149181 1.3590001 8225918
-0.66496718 -0.30851001 1.3590001 8290688
-0.75940883 -0.24388921 1.3560001 7241071
-0.74662089 -0.24388921 1.3560001 7306864
-0.6836881 -0.23144214 1.358 7963259
-0.67408061 -0.2346462 1.358 8028795
-0.66669619 -0.23110127 1.3560001 7962745
-0.65807444 -0.23144214 1.358 7962744
-0.69009149 -0.22503872 1.358 7436915
-0.68217772 -0.22454157 1.355 7896953
-0.67479098 -0.22421016 1.353 8028539
-0.66522121 -0.22421016 1.353 7962746
-0.65438581 -0.22487301 1.3570001 7831673
-0.69649494 -0.21543598 1.358 8358786
-0.68461722 -0.2147221 1.3535 7700087
-0.67379355 -0.21750833 1.3510001 8028539
-0.66374624 -0.21734732 1.35 7962746
-0.65352017 -0.21570687 1.3530002 7897210
-0.64975154 -0.2116068 1.3540001 7962746
-0.71412396 -0.20537381 1.355 7700855
-0.70341593 -0.20598009 1.3590001 8029820
-0.69546914 -0.20552538 1.3560001 8095867
-0.68411136 -0.20499489 1.3525001 7765107
-0.65419769 -0.20461597 1.35 7831160
-0.64750725 -0.20552538 1.3560001 7831160
-0.70341593 -0.19957197 1.3590001 8096128
-0.69623846 -0.19614998 1.3575001 8030335
-0.68449008 -0.1955353 1.35325 7765367
-0.67329478 -0.19188459 1.35 7896953
-0.65444005 -0.19513851 1.3505001 7766135
-0.64841527 -0.19695427 1.3556668 7700343
-0.69700783 -0.18355167 1.3590001 7701112
-0.68677759 -0.18416476 1.3556668 7634038
-0.67429227 -0.18579379 1.3520001 8093562
-0.66423792 -0.18565635 1.3510001 7896696
-0.65267795 -0.1841632 1.3556668 7568501
-0.69354963 -0.17387548 1.3585 7700085
-0.68242943 -0.17668614 1.3555 7699576
-0.67528975 -0.1764918 1.3540001 7699830
-0.66546708 -0.17642546 1.3535001 7765624
-0.65529227 -0.17577058 1.3566667 7634294
-0.70341593 -0.16112325 1.3590001 7766648
-0.69649494 -0.16420874 1.358 7371632
-0.68562764 -0.16390526 1.3555 7634036
-0.67504036 -0.16366345 1.3535001 7830645
-0.66534352 -0.16363263 1.3532501 7699572
-0.65450698 -0.16411629 1.3572501 7699572
-0.72264022 -0.15471514 1.3590001 7043954
-0.71623212 -0.15471514 1.3590001 7307126
-0.70584118 -0.15454435 1.3575001 7503734
-0.69546914 -0.15437359 1.3560001 7371120
-0.68436313 -0.15403207 1.3530002 7634036
-0.67379355 -0.15380436 1.3510001 7765367
-0.66448259 -0.15386128 1.3515 7765365
-0.6539036 -0.15437359 1.3560001 7633779
-0.72441357 -0.14567269 1.3543334 7175024
-0.71554631 -0.14347334 1.3536668 7306610
-0.70415074 -0.14459872 1.3542501 7766392
-0.69393051 -0.14446467 1.3530002 7239535
-0.68458027 -0.14534688 1.3513335 7568499
-0.67329478 -0.14732483 1.35 7634292
-0.66284841 -0.14523932 1.3503333 7568500
-0.65318024 -0.14462365 1.3545001 7436659
0.2951608 -0.14776136 1.3540001 10398121
0.30187941 -0.14473279 1.3555001 10463914
-0.71148878 -0.13459347 1.35 7240817
-0.70564544 -0.13469318 1.3510001 7175024
-0.69583344 -0.13464332 1.3505001 7372144
-0.65245688 -0.13489257 1.353 7502450
-0.6528756 -0.1262642 1.3516666 7436658
-0.64975154 -0.12222319 1.3540001 7371122
-0.64975154 -0.11583865 1.3540001 7371120
-0.64927167 -0.10618335 1.353 7371121
0.29428884 -0.10276507 1.35 10661293
-0.74022692 -0.096827835 1.3560001 6780007
-0.65245688 -0.090233773 1.353 7239535
-0.64975154 -0.096685022 1.3540001 7239536
-0.66056341 -0.083668023 1.35 7370609
-0.65342134 -0.083977908 1.355 7304815
-0.67379355 -0.070989206 1.3510001 7370607
-0.66497308 -0.074253224 1.3525001 7304814
-0.65734756 -0.07447283 1.3565 7304814
-0.68016392 -0.064618811 1.3510001 7371374
-0.67429227 -0.064666644 1.3520001 7305581
-0.66620219 -0.064810134 1.355 7304814
-0.65855908 -0.065001458 1.3590001 7370607
-0.68309504 -0.055042837 1.3505 7239279
-0.67454159 -0.055125535 1.3525001 7436401
-0.66644806 -0.055247806 1.3555 7107435
-0.65855908 -0.052185215 1.3590001 7239021
-0.67329478 -0.045473933 1.35 7239023
-0.66521895 -0.045574989 1.3530002 7173230
-0.65807444 -0.04574341 1.358 7239023
-0.66333771 -0.037023414 1.3513335 7173230
-0.65734756 -0.036099568 1.3565001 7107436
-0.6610527 -0.02321123 1.3510001 6976362
-0.65710527 -0.023297135 1.3560001 6910056
-0.72422016 -0.013645526 1.35 6714214
-0.6610527 -0.013655634 1.3510001 6910056
-0.65758991 -0.013716281 1.3570001 6910056
-0.74496907 -0.00091619487 1.353 6451042
-0.73695153 -0.004097004 1.35 6582627
-0.66178668 -0.0041034124 1.3525001 6975591
-0.65831673 -0.0041216211 1.3585 6975591
-0.74607027 0.0054717092 1.355 6713442
-0.73749745 0.0054555568 1.3510001 6779235
-0.6649695 0.0054616136 1.3525 7041383
-0.74496913 0.015035732 1.3530002 6319455
-0.73404169 0.015005596 1.3505001 6516835
-0.66583055 0.015047853 1.3542502 6844517
-0.74496907 0.024603115 1.353 6253661
-0.73749745 0.024566747 1.3510001 6451040
-0.66595292 0.024630394 1.3545001 6844517
-0.74414319 0.034133792 1.3515 6188382
-0.73695153 0.034097083 1.35 6385504
-0.66582936 0.034203842 1.3542502 6647136
-0.74677539 0.043661773 1.3505001 5925725
-0.66521418 0.043742597 1.353 6647135
-0.7502383 0.056418732 1.3510001 6318684
-0.74386787 0.053233534 1.3510001 6253918
-0.66447943 0.052276876 1.3536667 6909283
-0.75079364 0.069210723 1.3520001 6056795
-0.74331725 0.065925494 1.35 5990746
-0.66276526 0.066144064 1.3545001 6646367
-0.7496829 0.075474016 1.35 6253661
-0.66203135 0.075641736 1.353 6515552
-0.66154206 0.085148498 1.3520001 6449758
-0.65855908 0.088793419 1.3590001 6449759
-0.6610527 0.094641112 1.3510001 6449759
-0.65855908 0.09520153 1.3590001 6383966
-0.66080809 0.10415697 1.3505001 6514781
-0.65807444 0.10473658 1.358 6514781
-0.66056341 0.11366811 1.35 6514780
-0.65807444 0.11434169 1.358 6448987
-0.66129738 0.12335472 1.3515 6514779
-0.65855908 0.12403807 1.3590001 6383194
-0.663827 0.13724469 1.3523334 6448987
-0.66521657 0.14581984 1.353 6580573
-0.66558468 0.15547632 1.3537501 6383450
-0.67329478 0.16459356 1.35 6317401
-0.66619986 0.16520317 1.355 6448986
-0.67354417 0.17420776 1.3505001 6383194
-0.66656804 0.17488556 1.3557501 6448730
-0.67429227 0.18396275 1.3520001 6514780
-0.6693992 0.18437093 1.355 6448987
-0.67404294 0.19345266 1.3515 6317401
-0.6696462 0.19402522 1.3555 6317658
-0.67329478 0.20278764 1.35 6514780
-0.66726321 0.20566376 1.3550001 6513753
-0.66464251 0.21402471 1.3540001 6251351
-0.66227603 0.22564986 1.3535001 6316373
-0.66203135 0.23513742 1.353 6184786
-0.66203135 0.24470717 1.353 6184786
0.084782816 0.24899641 1.3590001 4601116
0.091123834 0.24240978 1.358 4469789
-0.66252065 0.25446483 1.3540001 6250581
0.084346116 0.25408897 1.3520001 4469276
-0.82456291 0.2680234 1.358 6448464
-0.66252065 0.26404166 1.3540001 6250323
0.078317031 0.26481935 1.358 4929052
-0.81364095 0.27609637 1.3505001 6382160
-0.66300994 0.27382055 1.355 6447188
0.078259356 0.27422473 1.3570001 4863000
-0.66447943 0.28418729 1.3536667 6118994
0.078144006 0.28020981 1.355 4928282
0.084595658 0.28681058 1.3560001 4862750
-0.821527 0.29893568 1.353 6514003
-0.66644293 0.29475299 1.3533335 6250321
0.094009437 0.29585153 1.3535001 5061672
-0.66595203 0.30400845 1.3566667 6184014
0.097599059 0.30666947 1.3590001 5391924
0.10331838 0.30463853 1.35 5786684
-0.91790235 0.31192574 1.3540001 5922375
-0.82851875 0.31192574 1.3540001 6709583
-0.6689052 0.31511801 1.3540001 5987666
0.10339492 0.31760499 1.3510001 5786682
-0.67329478 0.32373559 1.35 6513753
-0.6693992 0.3249346 1.355 6250581
-0.91654652 0.33696544 1.3520001 4935482
-0.86234796 0.33821163 1.3570001 5921868
-0.84829843 0.33132386 1.355 5921868
-0.67329478 0.33010128 1.35 6578774
-0.6693992 0.33451849 1.355 6381652
0.11009031 0.33771312 1.355 6050626
-0.91519064 0.34283262 1.35 5133125
-0.8642652 0.34283262 1.35 5396549
-0.6693992 0.34410238 1.355 5790028
-0.98174781 0.35023299 1.3540001 5725514
-0.91353744 0.35740769 1.3570001 5725516
-0.88376188 0.35381326 1.3555001 5790536
-0.67329478 0.355564 1.35 6250579
-0.6693992 0.35368627 1.355 5987151
-0.90764993 0.36273396 1.353 5330756
-0.8987487 0.36300209 1.3540001 5330756
-0.88972795 0.36192968 1.35 5330756
-0.67329478 0.36511254 1.35 6249811
-0.6693992 0.36646479 1.355 6249554
0.097383611 0.36993226 1.3560001 5720376
-0.67379355 0.37493861 1.3510001 5920846
-0.66989321 0.37632623 1.3560001 6117710
0.097599059 0.37715882 1.3590001 5655098
-0.6722151 0.3854197 1.3542502 6117711
-0.67283612 0.39536229 1.3555 6249297
0.097527243 0.39609146 1.358 5720374
-0.67320788 0.40517437 1.3562502 6183762
0.094117157 0.40480033 1.355 5390126
-0.82091981 0.41984192 1.3520001 6578767
-0.67747509 0.41664964 1.352 6315347
0.084658042 0.41499591 1.3570001 4862750
0.09065412 0.41316098 1.3510001 4665889
-0.83613652 0.42747799 1.3560001 6381901
-0.8134563 0.42092878 1.3555 6446669
-0.80357355 0.42077351 1.355 6379337
-0.79340142 0.42365757 1.3540001 5788743
-0.78151137 0.42558646 1.35 5921098
-0.67707914 0.42450753 1.3533334 6183761
0.084751621 0.42506441 1.3585 4796957
-0.8476724 0.43323204 1.3540001 5855553
-0.79254597 0.43451187 1.358 5920331
-0.78382695 0.43642664 1.3540001 6052433
-0.77514565 0.43831784 1.35 6119252
-0.67772442 0.43594083 1.3525001 6117968
0.090922527 0.43994126 1.355 4863268
-0.78498477 0.44665992 1.3560001 6118223
-0.77571988 0.44501296 1.3510001 5790287
-0.67772448 0.44550702 1.3525 6183246
0.097311787 0.44633052 1.355 5851194
-0.78556371 0.45338804 1.3570001 6118223
-0.77686828 0.45524386 1.3530002 5987409
-0.67553914 0.45574501 1.3545001 5920848
0.10393064 0.45372212 1.358 5851962
-0.78672147 0.46046436 1.3590001 6381136
-0.7785908 0.46584186 1.3560001 6185043
-0.76991898 0.4644677 1.3520001 5921616
-0.67578846 0.4654983 1.355 6249298
-0.7753973 0.47543401 1.3560001 6249555
-0.76326144 0.47385624 1.3515 6249811
-0.75604862 0.47651193 1.35 6184788
-0.67772442 0.47420561 1.3525001 6183762
-0.77511144 0.48484492 1.3555001 6053202
-0.76529235 0.48760149 1.3513335 6118995
-0.75604862 0.48287761 1.35 5987409
-0.67836982 0.48559567 1.3516666 6380882
-0.79254597 0.49854594 1.358 5724746
-0.78498477 0.49461237 1.3560001 5987151
-0.77686828 0.49351811 1.3530002 6052687
-0.76877999 0.49560899 1.35 6184786
-0.67333251 0.49479711 1.3565001 5919047
0.093975887 0.49351573 1.353 5455918
-0.79137874 0.5042057 1.3560001 5920837
-0.78324807 0.5030902 1.353 5922125
-0.77514565 0.5019747 1.35 6119504
-0.67283612 0.50401974 1.3555 5853510
-0.70703912 -0.56130302 1.3660001 8227461
-0.70859194 -0.55608046 1.3690001 8424580
-0.71139091 -0.54360139 1.362 8489602
-0.71348017 -0.53553855 1.3660001 8423297
-0.72313476 -0.52265626 1.3660001 8227200
-0.71781319 -0.52754807 1.3620001 8423295
-0.78605515 -0.51089358 1.3690001 8029820
-0.77409911 -0.51583719 1.365 8095099
-0.75322813 -0.51697093 1.368 8226429
-0.74568582 -0.51621515 1.3660001 8226429
-0.73601937 -0.51621515 1.3660001 8161149
-0.80130273 -0.50185901 1.3620001 7832695
-0.79604769 -0.50259596 1.3640001 8226683
-0.78746575 -0.50473505 1.364 8029819
-0.80365598 -0.49366885 1.3660001 7832696
-0.79575586 -0.49276417 1.3635001 7964027
-0.78961599 -0.49616423 1.3640001 8095615
-0.79311532 -0.4755379 1.3663334 7832698
-0.78605515 -0.47216195 1.3690001 7964027
-0.77732199 -0.47078234 1.365 7832441
-0.75395918 -0.47669435 1.3635001 7897721
-0.79488045 -0.46974769 1.3620001 7832441
-0.7627691 -0.46974769 1.3620001 7898747
-0.75579149 -0.46940276 1.3610001 7767161
0.37397194 -0.45048088 1.3620001 12434624
0.36741471 -0.44710195 1.3615 12368830
-0.80542099 -0.37533286 1.3690001 7503730
-0.79663122 -0.37423617 1.365 7634546
-0.8056975 -0.36431682 1.3640001 7569011
-0.79604763 -0.36431682 1.3640001 7568498
-0.79546404 -0.35440689 1.363 7371890
-0.80365598 -0.34230474 1.3660001 7503476
-0.79546404 -0.34476644 1.363 7569266
-0.67532748 -0.34255531 1.3670001 8291971
-0.66517293 -0.34552881 1.3660001 8356991
-0.65335983 -0.34660193 1.3660001 8356991
-0.64608121 -0.34243 1.3665 8160125
-0.68574905 -0.33325064 1.3685 8160127
-0.67433941 -0.33561772 1.365 8423297
-0.66643512 -0.33488011 1.3620001 8160125
-0.6563195 -0.33463421 1.3610001 8357247
-0.64537084 -0.33561772 1.365 8028539
-0.68342477 -0.32512838 1.3660001 8225409
-0.6726104 -0.3251285 1.3615 8422529
-0.66545647 -0.32797551 1.36 8619906
-0.65263075 -0.32797551 1.36 8357504
-0.64513326 -0.32584369 1.3645 8094332
-0.69568133 -0.31078014 1.3690001 8818566
-0.68771571 -0.31331965 1.3660001 8028028
-0.67582381 -0.3154974 1.3615 8356994
-0.65263075 -0.31514981 1.36 8160125
-0.64560604 -0.31642431 1.3655 8160125
-0.69568133 -0.30432487 1.3690001 8686982
-0.68424815 -0.30354682 1.3655001 8291200
-0.67499971 -0.30705026 1.362 8290944
-0.66594577 -0.30254647 1.3610001 8028539
-0.65643823 -0.30580965 1.36125 8291455
-0.64883131 -0.30676502 1.3655 8159612
-0.74568582 -0.29077569 1.3660001 7569269
-0.68512446 -0.29426351 1.36725 8159870
-0.67409241 -0.29367223 1.3645 8226174
-0.66407549 -0.29351023 1.36375 8291455
-0.65276349 -0.29421028 1.367 8159868
-0.7451399 -0.28412643 1.365 7503476
-0.68227202 -0.28475088 1.368 8225918
-0.67483342 -0.28433457 1.3660001 8423295
-0.66517174 -0.28433457 1.3660001 8291196
-0.65598994 -0.28454274 1.3670001 8291709
-0.73816234 -0.27748659 1.3640001 7701109
-0.68277079 -0.27527612 1.3690001 8093820
-0.67557448 -0.27497333 1.3675001 8225405
-0.66577983 -0.27492365 1.3672501 8159867
-0.65670973 -0.27517438 1.3685 8225403
-0.68227202 -0.26539919 1.368 8225916
-0.67582148 -0.26539919 1.368 7897464
-0.66590101 -0.26530218 1.3675001 8029050
-0.6569497 -0.2655932 1.3690001 8160123
-0.76290166 -0.25249809 1.368 7306351
-0.75267756 -0.25231352 1.3670001 7371890
-0.69517314 -0.25249809 1.368 7699574
-0.68512332 -0.25558496 1.3672501 8094075
-0.67483342 -0.25535187 1.3660001 8094331
-0.66529286 -0.25539801 1.36625 8028537
-0.65670973 -0.25581801 1.3685 7962744
-0.70510781 -0.24613746 1.3685 8095101
-0.69415683 -0.24568781 1.3660001 7765367
-0.68670881 -0.2453281 1.3640001 7962746
-0.67631787 -0.2450583 1.3625001 8028541
-0.66395319 -0.24523816 1.3635001 7963003
-0.65300226 -0.2459576 1.3675001 7896952
-0.73441297 -0.23977211 1.3690001 7569782
-0.72150236 -0.23331685 1.3690001 7700857
-0.71452481 -0.23637405 1.368 7766393
-0.70472115 -0.23704283 1.3656667 8160894
-0.6942665 -0.23426616 1.362 7569784
-0.68519843 -0.23837095 1.3610001 7766650
-0.67828214 -0.23819581 1.36 7963259
-0.66545647 -0.23819581 1.36 7897466
-0.65430212 -0.23720443 1.3635001 7896952
-0.64906889 -0.23280556 1.3660001 8027767
-0.76023406 -0.22686158 1.3690001 7305581
-0.74677759 -0.22669585 1.368 7438196
-0.73280352 -0.22636443 1.3660001 7569269
-0.72406882 -0.22343032 1.36775 7635321
-0.7129578 -0.22619872 1.365 7964029
-0.7054863 -0.22586729 1.363 8095615
-0.69803357 -0.22553587 1.3610001 8621959
-0.64607888 -0.22321965 1.3665001 7633779
-0.73405176 -0.21536718 1.3643333 7372403
-0.72583067 -0.2133259 1.365 7503991
-0.71458262 -0.21531351 1.364 7635321
-0.70419228 -0.2158314 1.3605001 8029822
-0.64565164 -0.21520619 1.3633333 7633781
0.11751112 -0.21363848 1.3670001 5264980
-0.74623173 -0.20074679 1.3670001 7371120
-0.73280352 -0.2038205 1.3660001 7438196
-0.72583067 -0.20367128 1.365 7438196
-0.71434093 -0.20314787 1.3615 7569527
-0.64286304 -0.20389628 1.3665001 7370608
-0.73280352 -0.19415879 1.3660001 7240817
-0.72583067 -0.19401665 1.365 7569269
-0.71335912 -0.19568205 1.3616667 7437940
-0.70393348 -0.19330597 1.36 8029820
-0.64465809 -0.19380346 1.3635001 7568242
-0.73334002 -0.18463218 1.3670001 7437685
-0.72583067 -0.18436205 1.365 7569270
-0.71499735 -0.18405756 1.3627501 7437685
-0.70419228 -0.18375307 1.3605001 7964027
-0.64536726 -0.18436086 1.365 7436657
-0.73334002 -0.17496341 1.3670001 7240819
-0.72583067 -0.17470741 1.365 7240306
-0.71486557 -0.17438745 1.3625001 7569271
-0.70445114 -0.17419547 1.3610001 7964027
-0.64811862 -0.17457944 1.3640001 7436915
-0.73333645 -0.1637398 1.363 7240560
-0.72476721 -0.16481334 1.3630002 7371889
-0.71434087 -0.16463196 1.3615001 7569012
-0.70393348 -0.16765463 1.36 8160638
-0.64811862 -0.16493189 1.3640001 7502194
-0.72958475 -0.15482897 1.36 6978161
-0.64764345 -0.1551705 1.363 7436913
-0.64740586 -0.14547783 1.3625001 7370866
0.31088638 -0.1427342 1.3670001 10529707
-0.64536613 -0.13286132 1.365 7042156
-0.64580846 -0.12523496 1.3636667 6976621
-0.64476544 -0.11471352 1.3660001 6449505
0.30642205 -0.1132668 1.3615 10792879
-0.64549166 -0.10589227 1.363 6778726
-0.64693069 -0.094009437 1.3615 7042154
-0.64811862 -0.084535688 1.3640001 7107435
-0.65223855 -0.073792398 1.3636667 7107435
-0.64906889 -0.078218512 1.3660001 7041642
-0.65455031 -0.065240607 1.3640001 7107435
-0.65636796 -0.056634694 1.3633333 7173228
-0.65455031 -0.045945518 1.3640001 7041644
-0.65431035 -0.036285847 1.3635001 6975851
-0.65455031 -0.023434579 1.3640001 6975336
-0.65503013 -0.013797143 1.365 6910310
-0.65598989 -0.0041462383 1.3670001 6712931
-0.65823901 0.0055120909 1.365 6778467
-0.66025513 0.015140109 1.3625001 6647138
-0.66098201 0.024803141 1.3640001 6647138
-0.66098201 0.034450687 1.3640001 6516064
-0.66049743 0.044065896 1.363 6581854
-0.66049743 0.05370637 1.363 6581087
-0.66001284 0.063300364 1.3620001 6515552
-0.65952826 0.069671437 1.3610001 6646368
-0.65952826 0.076088987 1.3610001 6449759
-0.65748769 0.084939629 1.3656667 5857366
-0.65646976 0.095832005 1.368 5594450
-0.65646976 0.10550784 1.368 5198664
-0.65646976 0.11518368 1.368 5066564
-0.65646976 0.12485951 1.368 5197636
-0.65775669 0.13414197 1.3640001 5527372
-0.65799904 0.14384222 1.3645 5723980
-0.65850878 0.15550126 1.3633333 5987152
-0.66001284 0.16605662 1.3620001 6251090
-0.65670973 0.16362382 1.3685 5392701
-0.66073972 0.17588468 1.3635001 6317141
-0.66346151 0.18539143 1.3625 6316888
-0.6637038 0.19509995 1.363 6119764
-0.66146654 0.20504083 1.365 5987407
-0.66049743 0.21437854 1.3630002 6052171
-0.65850717 0.22621375 1.3633333 5590852
-0.65748769 0.23518699 1.3656667 5392702
0.094732866 0.2370491 1.3640001 4667174
-0.65834719 0.24544148 1.363 5458751
0.085344285 0.24419484 1.368 4600348
-0.65764922 0.25456986 1.3660001 5129785
0.078778386 0.25349241 1.3660001 4863515
-0.65866876 0.26485088 1.3636667 5064506
-0.83124202 0.27664968 1.3690001 6644819
-0.66001284 0.27523512 1.3620001 5261883
-0.6569497 0.27019444 1.3690001 4735541
-0.66025513 0.28497428 1.3625001 5392443
-0.82699174 0.29450193 1.3620001 5921866
-0.66098201 0.29493436 1.3640001 5196092
0.084969975 0.29450193 1.3620001 4731934
-0.83524966 0.30802342 1.365 6513233
-0.66146654 0.30480522 1.365 5326652
0.085406676 0.30247077 1.3690001 5126176
0.091526441 0.30458897 1.3640001 4600348
-0.66428804 0.31590632 1.362 5788486
0.098101772 0.3146902 1.3660001 5457717
0.1040837 0.31330797 1.36 5918270
-0.84335566 0.32351965 1.3625001 6052425
-0.66328114 0.32502577 1.3643335 5458751
-0.86225688 0.33425811 1.3670001 5724487
-0.66477579 0.33541921 1.363 5459521
-0.92026943 0.34714979 1.3670001 5330756
-0.88933951 0.34765768 1.3690001 5922123
-0.87579417 0.34291342 1.363 5725001
-0.66360575 0.3444933 1.3650001 5458237
0.10446636 0.34664187 1.365 5786684
-0.98754841 0.35872459 1.3620001 6580307
-0.9140265 0.35564512 1.3625001 5659466
-0.90538645 0.35925135 1.3640001 5527367
-0.89507747 0.35576975 1.363 5593158
-0.66477579 0.35470018 1.363 5524800
0.097850412 0.35563803 1.3625 5523254
-0.66376728 0.36389187 1.3653334 5260858
0.097670875 0.36461064 1.36 5523510
-1.0011274 0.37184194 1.363 6645841
-0.99470043 0.37184194 1.363 5987911
-0.98827344 0.37184194 1.363 5790789
-0.66479886 0.37567514 1.36525 5325883
0.091828398 0.37657005 1.3685 4732451
-0.66692436 0.38469586 1.363 5327165
0.09476877 0.3851192 1.3645 5259311
-0.66765833 0.39477149 1.3645 5261629
0.085406676 0.39929989 1.3690001 4731164
0.09366563 0.39355373 1.364 4995624
-0.66790301 0.4045696 1.365 5326651
0.085157126 0.4045696 1.365 4796957
0.091258034 0.40308765 1.36 4600610
-0.67186928 0.41591331 1.36 6182733
-0.66863698 0.4146806 1.3665001 5260346
0.078951403 0.41866571 1.3690001 4928030
0.084969975 0.41010273 1.3620001 4796957
-0.83402586 0.42968473 1.363 6775122
-0.80451846 0.42936945 1.362 6249292
-0.67236334 0.42584547 1.3610001 6050377
-0.66888165 0.42449993 1.3670001 5259834
0.078836061 0.42449993 1.3670001 5059616
-0.84998649 0.43771154 1.368 6118725
-0.83002764 0.43094572 1.3670001 7038033
-0.82418424 0.43126097 1.368 6775376
-0.81713599 0.43094572 1.3670001 6512204
-0.80247939 0.43643168 1.3640001 5986891
-0.67236334 0.43547177 1.3610001 6116940
-0.66888165 0.43416864 1.3670001 5063993
0.078893736 0.43448859 1.368 4928797
0.084907584 0.43547177 1.3610001 4796957
-0.80424434 0.44383743 1.3670001 5920585
-0.79458863 0.44526282 1.3615 5788486
-0.67211628 0.44493341 1.3605001 5985354
-0.66888165 0.44383743 1.3670001 5260604
0.085157126 0.44318804 1.365 4863520
0.091459341 0.44896567 1.363 4731682
-0.80542099 0.45094207 1.3690001 5919302
-0.79546404 0.45539266 1.363 5986378
-0.67186928 0.45439032 1.36 5657159
-0.66863698 0.45333916 1.3665001 5195325
0.094981864 0.45689619 1.3675001 5193519
-0.79663122 0.4657155 1.365 5657416
-0.78730035 0.46721601 1.36 5856078
-0.67186928 0.46400958 1.36 5852996
-0.6683923 0.4660567 1.3660001 5063479
0.10446636 0.46249729 1.365 5918270
-0.79721487 0.47571841 1.3660001 5197121
-0.78787923 0.47397712 1.3610001 6447190
-0.67186928 0.47362885 1.36 5459264
-0.6683923 0.47571841 1.3660001 4998198
-0.80483264 0.48931599 1.368 5591872
-0.79604763 0.484667 1.3640001 5722952
-0.78758979 0.48342454 1.3605001 6052432
-0.67186928 0.48324805 1.36 5786945
-0.66814768 0.48520121 1.3655 4997942
0.09468843 0.4843964 1.36325 5456175
0.1040837 0.48004165 1.36 6180927
-0.80306762 0.49467933 1.365 5460799
-0.7942968 0.49322975 1.3610001 5657411
-0.66565394 0.49540415 1.3670001 4406062
0.0848452 0.49286732 1.36 4796698
-0.81069005 0.50507057 1.3670001 5262141
-0.80130267 0.50322318 1.362 5196860
-0.66516584 0.50470227 1.3659999 4274219
0.078893729 0.50866765 1.368 5322272
0.084969975 0.50001442 1.3620001 4862491
-0.70649612 -0.56277728 1.3775001 8490377
-0.7101447 -0.55082965 1.3720001 8686980
-0.7101447 -0.54436028 1.3720001 8621187
-0.71350574 -0.53448635 1.3743334 8555139
-0.76467663 -0.52037209 1.3770001 7963257
-0.72299445 -0.52074999 1.378 8358787
-0.7176587 -0.5257172 1.3740001 8424578
-0.78301674 -0.51313269 1.3750001 7964027
-0.77879214 -0.51462543 1.3790001 8226429
-0.76892942 -0.51886046 1.373 8160377
-0.75438881 -0.51350588 1.376 8029820
-0.74519765 -0.51387906 1.3770001 8029822
-0.73924106 -0.51425225 1.378 7963257
-0.72955292 -0.51848257 1.3720001 8555394
-0.78301674 -0.50340736 1.3750001 8029821
-0.77879214 -0.50812298 1.3790001 8160636
-0.79007441 -0.49404106 1.376 7963257
-0.78539956 -0.49638051 1.3735001 7963515
-0.77441144 -0.49440011 1.3770001 8029820
-0.80013293 -0.48578113 1.3710001 7964029
-0.79424715 -0.48613548 1.3720001 7832443
-0.78441542 -0.48456481 1.3736668 7964284
-0.77653313 -0.48719847 1.3750001 7832441
-0.80659765 -0.47285172 1.3710001 7832695
-0.78777772 -0.47966605 1.3720001 7898747
-0.75928485 -0.47561088 1.3790001 7964027
-0.78472507 -0.46876827 1.378 7766902
-0.67475331 -0.39107937 1.3790001 8620423
-0.66487849 -0.39425969 1.3787501 8488065
-0.65524602 -0.39107937 1.3790001 8751492
-0.67475331 -0.38457695 1.3790001 8489088
-0.6645174 -0.38429806 1.378 8554883
-0.65524602 -0.38457695 1.3790001 8554113
-0.81602746 -0.37725201 1.376 7831925
-0.68125576 -0.37157208 1.3790001 8357251
-0.67401934 -0.37441677 1.3775001 8423296
-0.66479427 -0.37518224 1.3763336 8357502
-0.65598172 -0.37292805 1.376 8226430
-0.64827311 -0.37455386 1.378 8291710
0.3713277 -0.37725201 1.376 12566208
-0.80659765 -0.36941648 1.3710001 7700339
-0.68026769 -0.36454019 1.3770001 8751492
-0.67230678 -0.36374596 1.3740001 8488320
-0.66534328 -0.36348122 1.373 8356734
-0.65563208 -0.36348122 1.373 8225918
-0.64455146 -0.36454016 1.3770001 8093819
0.35783029 -0.36698306 1.3740001 12171707
-0.6942606 -0.35206479 1.3790001 7831160
-0.68601263 -0.35441774 1.3755001 8292226
-0.67564267 -0.35459217 1.3720001 8291969
-0.66388959 -0.35622704 1.3700001 8619906
-0.6541996 -0.35622704 1.3700001 8356732
-0.64253628 -0.35536596 1.3750001 7962232
0.358872 -0.35830718 1.378 11974328
-0.69224679 -0.34456006 1.3750001 7896953
-0.68376827 -0.34355769 1.3710001 8291971
-0.64450961 -0.34976706 1.3700001 8290941
-0.63991249 -0.34430945 1.3740001 7831160
-0.7062397 -0.33207521 1.3770001 8686982
-0.69589633 -0.3355906 1.3736668 8489858
-0.63991249 -0.33459115 1.3740001 8028539
-0.72027022 -0.32605511 1.3790001 8030335
-0.71273273 -0.32558221 1.3770001 8030335
-0.70521396 -0.32510933 1.3750001 8424327
-0.69669765 -0.32416356 1.3710001 8687499
-0.63991249 -0.32487288 1.3740001 7831160
-0.74492705 -0.3157292 1.3765001 7569526
-0.73545814 -0.31584507 1.3770002 7766906
-0.72571862 -0.31584507 1.3770001 7767420
-0.71368617 -0.31422773 1.3746668 8030334
-0.70393169 -0.31481174 1.3725001 8556165
-0.69618952 -0.31746712 1.3700001 8490371
-0.64222103 -0.31415358 1.3743334 7896440
-0.74411529 -0.30565864 1.3750001 7635062
-0.73763174 -0.30565864 1.3750001 7569784
-0.72413754 -0.30543634 1.3740001 7767163
-0.71066231 -0.30521402 1.373 8227201
-0.70316237 -0.30476943 1.3710001 8556166
-0.64299887 -0.30371344 1.376 7830902
-0.75114471 -0.29939264 1.376 7700855
-0.74384463 -0.29582918 1.3745 7635063
-0.73425341 -0.29587889 1.37475 7766650
-0.72440106 -0.2958245 1.3745 7898496
-0.71455109 -0.29577127 1.3742501 8030078
-0.70367527 -0.29528761 1.3720001 8424835
-0.69644356 -0.2949636 1.3705001 8161408
-0.64568567 -0.29539403 1.3725001 7896953
-0.74357408 -0.2859998 1.3740001 7635062
-0.73401833 -0.28432116 1.3763334 7897722
-0.72571862 -0.28337777 1.3770001 7898235
-0.71520042 -0.28631201 1.3755001 8095615
-0.70418811 -0.28579164 1.373 8490373
-0.69669765 -0.28537533 1.3710001 7964029
-0.68972957 -0.28516719 1.3700001 7831420
-0.65096956 -0.28516719 1.3700001 8160123
-0.64639133 -0.2859998 1.3740001 7896951
-0.7363615 -0.27573475 1.3766667 7832183
-0.72571862 -0.27363825 1.3770001 7963257
-0.71520042 -0.27658314 1.3755001 8029563
-0.70444459 -0.27618214 1.3735001 8358787
-0.69720584 -0.27587935 1.3720001 7635066
-0.68972957 -0.27547723 1.3700001 8028028
-0.65120715 -0.27557656 1.3705001 8027767
-0.64662659 -0.27638087 1.3745 7896951
-0.7342546 -0.26346815 1.37475 7766392
-0.72519159 -0.2637071 1.376 7832699
-0.71567321 -0.26446828 1.3743334 7898491
-0.70418811 -0.26636922 1.373 8161406
-0.69669765 -0.2659812 1.3710001 7634292
-0.68972957 -0.26578721 1.3700001 7961976
-0.65144473 -0.2659812 1.3710001 7896951
-0.64686179 -0.26351547 1.3750001 7830900
-0.73385346 -0.25360554 1.3740001 7635318
