# .PCD v0.7 - Point Cloud Data file format
VERSION 0.7
FIELDS x y z rgb
SIZE 4 4 4 4
TYPE F F F U
COUNT 1 1 1 1
WIDTH 1157
HEIGHT 1
VIEWPOINT 0 0 0 1 0 0 0
POINTS 1157
DATA ascii
-0.493067 -0.2617757 0.75900006 7898997
-0.48948807 -0.2617757 0.75900006 7964792
-0.64590418 -0.35317299 1.024 7899513
-0.64232779 -0.35386276 1.026 7964794
-0.63873255 -0.35455257 1.028 7635829
-0.46801448 -0.2617757 0.75900006 7767413
-0.46443555 -0.2617757 0.75900006 8160888
-0.46085662 -0.2617757 0.75900006 8095095
-0.45727769 -0.2617757 0.75900006 7700855
-0.45369875 -0.2617757 0.75900006 7766648
-0.45011982 -0.2617757 0.75900006 7832441
-0.44654095 -0.2617757 0.75900006 7700855
-0.44296202 -0.2617757 0.75900006 7832441
-0.43938309 -0.2617757 0.75900006 7832443
-0.43580416 -0.2617757 0.75900006 7832441
-0.79917139 -0.49216586 1.427 7964029
-0.79744053 -0.49526995 1.4360001 7964027
-0.78846687 -0.49389035 1.432 7963257
-0.78007686 -0.49285564 1.429 8160638
-0.7819975 -0.49837399 1.4450001 8094845
-0.76230884 -0.49009651 1.4210001 8160385
-0.75454485 -0.4894067 1.419 8292224
-0.74469167 -0.48733735 1.4130001 8358017
-0.73750657 -0.48699245 1.4120001 8621189
-0.72774303 -0.48492306 1.406 8555396
-0.71598446 -0.4814741 1.396 8621189
-0.70736921 -0.48009455 1.3920001 8686469
-0.6992951 -0.47905985 1.3890001 9081227
-0.69124931 -0.47802514 1.386 8028286
-0.68323177 -0.47699046 1.383 8686216
-0.6757319 -0.47630069 1.381 8619906
-0.66825086 -0.47561088 1.3790001 8489090
-0.66126853 -0.47526598 1.378 8619906
-0.65524602 -0.47561088 1.3790001 8619136
-0.64921403 -0.47595581 1.3800001 8619136
-0.64410406 -0.47699046 1.383 8553343
-0.63988787 -0.47871494 1.388 8290171
-0.63699341 -0.4814741 1.396 7763827
-0.63492662 -0.48492306 1.406 6380634
-0.63365936 -0.48906183 1.4180001 5789780
-0.63272101 -0.49354547 1.4310001 5000521
-0.63078517 -0.49733931 1.442 4934728
-0.62874562 -0.50113314 1.4530001 4211775
-0.62703037 -0.50527191 1.465 4408384
-0.62520194 -0.50941068 1.4770001 3947831
-0.62409747 -0.51423919 1.4910001 3355694
-0.62286097 -0.51906776 1.5050001 2237983
-0.62149245 -0.52389628 1.5190001 1909788
-0.61958748 -0.52837992 1.5320001 1843225
-0.61676049 -0.53217375 1.5430001 1645846
-0.61303973 -0.53527778 1.552 1514260
-0.60884386 -0.538037 1.5600001 1317651
-0.60380137 -0.54010636 1.5660001 1186065
-0.59832144 -0.54183084 1.5710001 1316881
-0.59204209 -0.54286551 1.5740001 1448469
-0.58536303 -0.54355532 1.5760001 1316883
-0.57793164 -0.54355532 1.5760001 1186067
-0.57013834 -0.54321039 1.575 1185297
-0.56199718 -0.54252064 1.5730001 1316883
-0.55422741 -0.54217571 1.572 1185044
-0.54611921 -0.54148591 1.5700001 1185297
-0.53871614 -0.54148591 1.5700001 1251860
-0.53131312 -0.54148591 1.5700001 1317400
-0.52457744 -0.54217571 1.572 1251607
-0.51782298 -0.54286551 1.5740001 1382423
-0.51137382 -0.54390019 1.577 1316881
-0.50457692 -0.54459 1.5790001 1514260
-0.49807593 -0.54562467 1.582 1316881
-0.49092641 -0.54596955 1.5830001 1448467
-0.48376748 -0.54631448 1.5840001 1448467
-0.47629842 -0.54631448 1.5840001 1514260
-0.46853334 -0.54596955 1.5830001 1383444
-0.46106899 -0.54596955 1.5830001 1580055
-0.45360467 -0.54596955 1.5830001 1514262
-0.44585848 -0.54562467 1.582 1514262
-0.43839884 -0.54562467 1.582 1382676
-0.4306668 -0.5452798 1.5810001 1449239
-0.4232119 -0.5452798 1.5810001 1383446
-0.41575697 -0.5452798 1.5810001 1449239
-0.40804377 -0.54493487 1.58 1317653
-0.40084711 -0.5452798 1.5810001 1514262
-0.39339221 -0.5452798 1.5810001 1382676
-0.38593727 -0.5452798 1.5810001 1448469
-0.37848237 -0.5452798 1.5810001 1645848
-0.37102744 -0.5452798 1.5810001 1514262
-0.36357251 -0.5452798 1.5810001 1645846
-0.35589233 -0.54493487 1.58 1580053
-0.34844214 -0.54493487 1.58 1645846
-0.34077615 -0.54459 1.5790001 1645846
-0.33311951 -0.54424512 1.5780001 1514260
-0.32567877 -0.54424512 1.5780001 1449237
-0.31803632 -0.54390019 1.577 1449237
-0.31060025 -0.54390019 1.577 1383444
-0.30316418 -0.54390019 1.577 1515032
-0.29591566 -0.54424512 1.5780001 1515032
-0.2886577 -0.54459 1.5790001 1646618
-0.28139028 -0.54493487 1.58 1515032
-0.27411348 -0.5452798 1.5810001 1580055
-0.26682723 -0.54562467 1.582 1645848
-0.25953153 -0.54596955 1.5830001 1645846
-0.25206718 -0.54596955 1.5830001 1843225
-0.24475734 -0.54631448 1.5840001 1645846
-0.2372883 -0.54631448 1.5840001 1777432
-0.22981922 -0.54631448 1.5840001 1645846
-0.22235015 -0.54631448 1.5840001 1843225
-0.21488111 -0.54631448 1.5840001 1843225
-0.20728108 -0.54596955 1.5830001 1448467
-0.19981672 -0.54596955 1.5830001 1580053
-0.19223087 -0.54562467 1.582 1909018
-0.18453763 -0.54493487 1.58 1909018
-0.17675118 -0.54390019 1.577 1645846
-0.16910039 -0.54321039 1.575 1909018
-0.16136582 -0.54217571 1.572 1843225
-0.15375747 -0.54148591 1.5700001 1843225
-0.14616798 -0.54079616 1.5680001 1974811
-0.13868584 -0.54045123 1.567 1974811
-0.13129695 -0.54045123 1.567 1909018
-0.12398711 -0.54079616 1.5680001 2040604
-0.11674221 -0.54148591 1.5700001 2105627
-0.10954808 -0.54252064 1.5730001 2105627
-0.10226074 -0.54321039 1.575 2171420
-0.095014751 -0.54424512 1.5780001 2106397
-0.087684967 -0.54493487 1.58 2106397
-0.080285542 -0.5452798 1.5810001 2040604
-0.072876684 -0.54562467 1.582 2500385
-0.065499753 -0.54631448 1.5840001 2500385
-0.058067322 -0.54665935 1.585 2303776
-0.050625462 -0.54700428 1.5860001 2303776
-0.043174174 -0.54734915 1.5870001 2500385
-0.035713449 -0.54769403 1.5880001 2500387
-0.028243294 -0.54803896 1.5890001 2500387
-0.020750653 -0.54803896 1.5890001 2631973
-0.013266352 -0.54838383 1.59 2697766
-0.0057726223 -0.54872876 1.5910001 2631973
0.0017316254 -0.54941851 1.5930001 2697766
0.0092489328 -0.54976344 1.5940001 2697507
0.01677567 -0.55010831 1.595 2566178
0.024327071 -0.55079812 1.5970001 2697764
0.031877384 -0.55114299 1.598 2697764
0.039461792 -0.5518328 1.6 2829350
0.047006305 -0.5518328 1.6 2697764
0.054584913 -0.55217767 1.6010001 2697507
0.062134139 -0.55217767 1.6010001 2631971
0.069639839 -0.5518328 1.6 2829350
0.077087872 -0.55114299 1.598 2895145
0.084569998 -0.55079812 1.5970001 2697766
0.09192735 -0.54976344 1.5940001 3026731
0.09944357 -0.54976344 1.5940001 3158060
0.10695979 -0.54976344 1.5940001 3092267
0.11447601 -0.54976344 1.5940001 3355439
0.12199223 -0.54976344 1.5940001 3223853
0.12950845 -0.54976344 1.5940001 3552818
0.13702467 -0.54976344 1.5940001 3289903
0.14454088 -0.54976344 1.5940001 3816247
0.15205711 -0.54976344 1.5940001 5526608
0.15877245 -0.54700428 1.5860001 6052950
0.16541237 -0.54424512 1.5780001 5592399
0.098366357 -0.30971617 0.89800006 6382172
0.10191519 -0.30764678 0.89200002 7105387
0.10635919 -0.30833659 0.89400005 8224121
0.11045101 -0.30799168 0.89300007 9145480
0.11427659 -0.30695701 0.89000005 9868952
0.11820699 -0.3062672 0.88800007 10197919
0.12184287 -0.30488762 0.88400006 10329503
0.12544103 -0.30350804 0.88000005 10395296
0.12900145 -0.30212846 0.87600005 10460832
0.13252416 -0.30074888 0.87200004 10460832
0.13600916 -0.29936928 0.86800003 9802130
0.13961783 -0.29833463 0.86500007 9670797
0.14336433 -0.29764482 0.86300004 10921385
0.14726281 -0.29729992 0.86200005 10987435
0.15115187 -0.29695502 0.86100006 11250607
0.15521176 -0.29695502 0.86100006 11382193
0.15927164 -0.29695502 0.86100006 11316400
0.16352123 -0.29729992 0.86200005 11316400
0.16797467 -0.2979897 0.86400002 11908280
0.17244698 -0.2986795 0.86600006 11974330
0.17714196 -0.29971418 0.86900002 11381682
0.1816567 -0.30040398 0.87100005 11316143
0.18619031 -0.30109376 0.87300003 11316400
0.19074278 -0.30178356 0.87500006 11316400
0.19509137 -0.30212846 0.87600005 11382193
0.19944942 -0.30247334 0.87700003 11382193
0.20381689 -0.30281824 0.87800002 11316400
0.20819381 -0.30316314 0.87900007 11447986
0.21258013 -0.30350804 0.88000005 11447986
0.2169759 -0.30385295 0.88100004 11579572
0.22213408 -0.30523252 0.88500005 11711158
0.3563548 -0.46353957 1.3440001 11974330
0.36781952 -0.47009256 1.363 12105659
0.38193461 -0.47974962 1.391 12368831
0.46306431 -0.57183677 1.6580001 12368831
0.50183892 -0.60943037 1.7670001 12368831
0.5162341 -0.61667317 1.7880001 12368831
0.53200096 -0.62529552 1.8130001 12303038
0.42039457 -0.48630267 1.4100001 12039866
0.42704317 -0.48630267 1.4100001 11974073
0.43369177 -0.48630267 1.4100001 11842487
0.44034037 -0.48630267 1.4100001 11645106
0.44698894 -0.48630267 1.4100001 11776692
0.45363754 -0.48630267 1.4100001 11579315
0.2866179 -0.30281824 0.87800002 11579315
0.29075795 -0.30281824 0.87800002 11645108
0.294898 -0.30281824 0.87800002 11513522
0.29563215 -0.29936928 0.86800003 11513522
0.29937977 -0.2990244 0.86700004 11579315
0.30346793 -0.2990244 0.86700004 11645108
0.30755609 -0.2990244 0.86700004 11579315
0.31128484 -0.2986795 0.86600006 11579315
0.31536832 -0.2986795 0.86600006 11644338
0.31945178 -0.2986795 0.86600006 11578545
0.32316166 -0.29833463 0.86500007 11775924
0.32724041 -0.29833463 0.86500007 11710131
0.33093613 -0.2979897 0.86400002 11710131
0.33501017 -0.2979897 0.86400002 11710131
0.33869171 -0.29764482 0.86300004 11775924
0.34276104 -0.29764482 0.86300004 11710131
0.34683037 -0.29764482 0.86300004 11775924
0.35130629 -0.2979897 0.86400002 11775924
0.35579169 -0.29833463 0.86500007 11710131
0.35987043 -0.29833463 0.86500007 11775924
0.36436993 -0.2986795 0.86600006 11775924
0.36887884 -0.2990244 0.86700004 11710131
0.3733972 -0.29936928 0.86800003 11907510
0.3774901 -0.29936928 0.86800003 11775924
0.38114339 -0.2990244 0.86700004 11973303
0.38523158 -0.2990244 0.86700004 11907510
0.38931978 -0.2990244 0.86700004 11775670
0.3929542 -0.2986795 0.86600006 11973303
0.39703766 -0.2986795 0.86600006 11907510
0.40112111 -0.2986795 0.86600006 11973303
0.40520459 -0.2986795 0.86600006 11842487
0.40928805 -0.2986795 0.86600006 11842487
0.41337153 -0.2986795 0.86600006 11776694
0.41745499 -0.2986795 0.86600006 11842487
0.42153847 -0.2986795 0.86600006 12039096
0.4261134 -0.2990244 0.86700004 11908280
0.43020156 -0.2990244 0.86700004 11842487
0.43428975 -0.2990244 0.86700004 11974071
0.43888357 -0.29936928 0.86800003 12039866
0.44348678 -0.29971418 0.86900002 11974073
0.44809949 -0.30005908 0.87000006 12039866
0.4527216 -0.30040398 0.87100005 11842487
0.45735312 -0.30074888 0.87200004 12039866
0.46199408 -0.30109376 0.87300003 12105659
0.46664447 -0.30143866 0.87400001 12105659
0.47184294 -0.30212846 0.87600005 12368831
0.47434351 -0.30109376 0.87300003 12500674
0.47845992 -0.30109376 0.87300003 12895432
0.95069718 -0.58321828 1.6910001 13092811
0.96377313 -0.58632231 1.7 13158604
0.98608017 -0.59494472 1.725 13224397
0.99190873 -0.59356517 1.7210001 13027788
1.0064156 -0.597359 1.7320001 12633030
1.0227835 -0.60218751 1.7460001 12567235
1.0487316 -0.6125344 1.7760001 12501442
1.0577011 -0.61287928 1.7770001 12238270
1.0660803 -0.61287928 1.7770001 12304063
1.0659944 -0.60805076 1.7630001 12238270
1.0523704 -0.59563452 1.7270001 12106684
0.54468769 -0.3059223 0.88700002 11384242
0.54825145 -0.3055774 0.88600004 11515828
0.55429971 -0.3066121 0.88900006 11384495
0.55786341 -0.3062672 0.88800007 11252143
0.5607847 -0.3055774 0.88600004 11382959
0.56368721 -0.30488762 0.88400006 11252394
0.56657076 -0.30419782 0.88200003 11186601
0.5700826 -0.30385295 0.88100004 10858919
0.5729332 -0.30316314 0.87900007 10661540
-0.56464553 -0.25819677 0.75900006 8096882
-0.56106657 -0.25819677 0.75900006 8096882
-0.55748767 -0.25819677 0.75900006 7964013
-0.55390877 -0.25819677 0.75900006 8162162
-0.55032986 -0.25819677 0.75900006 8096115
-0.5467509 -0.25819677 0.75900006 8096117
-0.543172 -0.25819677 0.75900006 8096117
-0.53959304 -0.25819677 0.75900006 7964531
-0.53601414 -0.25819677 0.75900006 8162169
-0.53243518 -0.25819677 0.75900006 8030837
-0.52885628 -0.25819677 0.75900006 7899249
-0.52527732 -0.25819677 0.75900006 7899249
-0.52169842 -0.25819677 0.75900006 7833718
-0.51811945 -0.25819677 0.75900006 7636339
-0.51454055 -0.25819677 0.75900006 7964792
-0.51096159 -0.25819677 0.75900006 8096378
-0.50738269 -0.25819677 0.75900006 7899001
-0.50380373 -0.25819677 0.75900006 7701620
-0.50022489 -0.25819677 0.75900006 7767927
-0.49664593 -0.25819677 0.75900006 7965306
-0.493067 -0.25819677 0.75900006 7898997
-0.48948807 -0.25819677 0.75900006 8030070
-0.64653498 -0.3486847 1.0250001 8031099
-0.64232779 -0.34902486 1.026 7701620
-0.63873255 -0.34970519 1.028 7570036
-0.46801448 -0.25819677 0.75900006 8160888
-0.46443555 -0.25819677 0.75900006 8028789
-0.46085662 -0.25819677 0.75900006 7831923
-0.45727769 -0.25819677 0.75900006 7963511
-0.45369875 -0.25819677 0.75900006 7897718
-0.45011982 -0.25819677 0.75900006 7832441
-0.44654095 -0.25819677 0.75900006 7897464
-0.44296202 -0.25819677 0.75900006 7962746
-0.43938309 -0.25819677 0.75900006 7897466
-0.43580416 -0.25819677 0.75900006 7963259
-0.43222523 -0.25819677 0.75900006 7963257
-0.79744053 -0.48849875 1.4360001 7832441
-0.78846687 -0.487138 1.432 7766648
-0.779531 -0.48577729 1.4280001 7832441
-0.78145635 -0.49122021 1.4440001 8029820
-0.76177239 -0.48305586 1.4200001 8094845
-0.75348139 -0.48203531 1.4170001 8095362
-0.74574572 -0.48135495 1.4150001 7964029
-0.73750657 -0.4803344 1.4120001 8227201
-0.72567266 -0.47693262 1.4020001 8424580
-0.71598446 -0.47489151 1.396 8423810
-0.70736921 -0.4735308 1.3920001 8686982
-0.69879162 -0.47217005 1.388 9080974
-0.6907506 -0.47114956 1.3850001 8093309
-0.68273783 -0.47012901 1.3820001 8225665
-0.6752426 -0.46944866 1.3800001 8619653
-0.66776627 -0.46876827 1.378 8553860
-0.66078871 -0.46842811 1.3770001 8684676
-0.65429568 -0.46842811 1.3770001 8948101
-0.64874357 -0.46910846 1.3790001 8619136
-0.64363831 -0.47012901 1.3820001 8421757
-0.63942689 -0.47182992 1.3870001 8159355
-0.63653713 -0.47455135 1.3950001 7501425
-0.63447505 -0.47795317 1.4050001 5987159
-0.63321245 -0.48203531 1.4170001 5854803
-0.6322788 -0.48645765 1.4300001 5065285
-0.63078517 -0.49053979 1.442 4934726
-0.62917835 -0.49462199 1.4540001 4408384
-0.62703037 -0.49836394 1.465 4211005
-0.62562519 -0.50278628 1.478 3815988
-0.62493461 -0.50788897 1.493 3421230
-0.62410253 -0.51299167 1.508 2501155
-0.62312907 -0.51809442 1.5230001 2040604
-0.62120515 -0.52251673 1.536 1909018
-0.61875904 -0.52659893 1.5480001 1776662
-0.61580467 -0.53034085 1.559 1448467
-0.61196613 -0.5334025 1.5680001 1317651
-0.60727149 -0.53578377 1.575 1186065
-0.60213 -0.53782487 1.5810001 1316881
-0.5961796 -0.53918558 1.585 1447697
-0.58944869 -0.53986597 1.5870001 1316111
-0.58196545 -0.53986597 1.5870001 1185295
-0.57412022 -0.53952575 1.5860001 1185295
-0.56592727 -0.53884542 1.5840001 1185295
-0.55775303 -0.53816503 1.582 1185295
-0.54994553 -0.53782487 1.5810001 988686
-0.54214746 -0.53748465 1.58 988686
-0.53469723 -0.53748465 1.58 1054479
-0.5275808 -0.53782487 1.5810001 1251860
-0.5211128 -0.53884542 1.5840001 1382676
-0.51461655 -0.53986597 1.5870001 1580055
-0.50809199 -0.54088646 1.59 1448469
-0.50153917 -0.54190701 1.5930001 1448469
-0.49495804 -0.54292756 1.5960001 1316881
-0.4877378 -0.54326773 1.5970001 1382674
-0.48050812 -0.54360789 1.598 1186065
-0.47297302 -0.54360789 1.598 1186067
-0.46543792 -0.54360789 1.598 1383446
-0.45818946 -0.54394811 1.5990001 1317653
-0.45064965 -0.54394811 1.5990001 1317653
-0.44310984 -0.54394811 1.5990001 1317653
-0.43584242 -0.54428828 1.6 1251860
-0.42829791 -0.54428828 1.6 1317653
-0.42075339 -0.54428828 1.6 1383446
-0.41320887 -0.54428828 1.6 1251860
-0.40566435 -0.54428828 1.6 1317653
-0.39811987 -0.54428828 1.6 1317653
-0.39057535 -0.54428828 1.6 1251860
-0.38303086 -0.54428828 1.6 1317651
-0.37525168 -0.54394811 1.5990001 1317651
-0.36771187 -0.54394811 1.5990001 1448467
-0.35994682 -0.54360789 1.598 1580053
-0.35219124 -0.54326773 1.5970001 1514260
-0.34444502 -0.54292756 1.5960001 1514260
-0.33670825 -0.54258734 1.595 1580053
-0.32898098 -0.54224724 1.5940001 1580053
-0.32126307 -0.54190701 1.5930001 1514260
-0.31375155 -0.54190701 1.5930001 1514260
-0.3060478 -0.54156685 1.5920001 1383444
-0.29854104 -0.54156685 1.5920001 1515030
-0.29103425 -0.54156685 1.5920001 1383444
-0.28370553 -0.54190701 1.5930001 1449237
-0.27619401 -0.54190701 1.5930001 1645846
-0.26885122 -0.54224724 1.5940001 1580053
-0.26133499 -0.54224724 1.5940001 1645846
-0.25397798 -0.54258734 1.595 1580055
-0.24645704 -0.54258734 1.595 1580055
-0.23908593 -0.54292756 1.5960001 1580055
-0.23156027 -0.54292756 1.5960001 1580053
-0.22403462 -0.54292756 1.5960001 1645846
-0.21650898 -0.54292756 1.5960001 1580053
-0.20898333 -0.54292756 1.5960001 1514260
-0.20133144 -0.54258734 1.595 1645846
-0.193689 -0.54224724 1.5940001 1645846
-0.18593919 -0.54156685 1.5920001 1710869
-0.17820823 -0.54088646 1.59 1645846
-0.17038879 -0.53986597 1.5870001 1777432
-0.16270027 -0.53918558 1.585 1777432
-0.15493268 -0.53816503 1.582 1843225
-0.14737983 -0.53782487 1.5810001 1843225
-0.1398364 -0.53748465 1.58 1843225
-0.13238619 -0.53748465 1.58 1909018
-0.12501507 -0.53782487 1.5810001 1843225
-0.1176345 -0.53816503 1.582 1909018
-0.11031415 -0.53884542 1.5840001 1974811
-0.10297494 -0.53952575 1.5860001 1974811
-0.09561687 -0.54020613 1.5880001 1909018
-0.088184439 -0.5405463 1.5890001 1974811
-0.080793358 -0.54122669 1.5910001 1974811
-0.073337354 -0.54156685 1.5920001 1974811
-0.065871909 -0.54190701 1.5930001 2106397
-0.058397043 -0.54224724 1.5940001 2237983
-0.050912742 -0.54258734 1.595 2237983
-0.043419015 -0.54292756 1.5960001 2368799
-0.035893366 -0.54292756 1.5960001 2237213
-0.028385488 -0.54326773 1.5970001 2500385
-0.020855125 -0.54326773 1.5970001 2303776
-0.013333101 -0.54360789 1.598 2106397
-0.0057980204 -0.54360789 1.598 2303776
0.0017381476 -0.54394811 1.5990001 2500387
0.0092779445 -0.54394811 1.5990001 2500130
0.016828258 -0.54428828 1.6 2631714
0.024388002 -0.54462844 1.6010001 2565921
0.03193723 -0.54462844 1.6010001 2500385
0.039511122 -0.54496866 1.6020001 2566178
0.047065064 -0.54496866 1.6020001 2631971
0.054619007 -0.54496866 1.6020001 2697764
0.062172949 -0.54496866 1.6020001 2566178
0.069683366 -0.54462844 1.6010001 2697764
0.077136114 -0.54394811 1.5990001 2566178
0.084569998 -0.54326773 1.5970001 2829352
0.09192735 -0.54224724 1.5940001 2697766
0.09944357 -0.54224724 1.5940001 2697509
0.10695979 -0.54224724 1.5940001 2894888
0.11447601 -0.54224724 1.5940001 3092014
0.12199223 -0.54224724 1.5940001 3026474
0.12950845 -0.54224724 1.5940001 3158060
0.13702467 -0.54224724 1.5940001 3223853
0.14454088 -0.54224724 1.5940001 3815990
0.15205711 -0.54224724 1.5940001 5526606
0.15877245 -0.53952575 1.5860001 5789778
0.16541237 -0.53680432 1.5780001 5592399
0.097928204 -0.30412108 0.89400005 6513501
0.10191519 -0.30344072 0.89200002 7302249
0.10624022 -0.30378091 0.89300007 8025719
0.11020363 -0.30310053 0.89100003 9079434
0.11427659 -0.30276036 0.89000005 10000538
0.11807386 -0.30173981 0.88700002 10066331
0.12184287 -0.30071929 0.88400006 10197917
0.12544103 -0.29935855 0.88000005 10066331
0.12900145 -0.29799783 0.87600005 10395039
0.13237219 -0.29629692 0.87100005 10262683
0.13585246 -0.29493621 0.86700004 9275786
0.13945642 -0.29391566 0.86400002 9671567
0.14319821 -0.2932353 0.86200005 10527654
0.14692113 -0.29255494 0.86000001 10724779
0.15080075 -0.29221475 0.85900003 11250607
0.15485121 -0.29221475 0.85900003 11513779
0.15908664 -0.29255494 0.86000001 11382193
0.16333154 -0.29289514 0.86100006 11447732
0.16778025 -0.2935755 0.86300004 11710904
0.17224784 -0.29425585 0.86500007 11974076
0.17673428 -0.29493621 0.86700004 11315889
0.18144815 -0.29595676 0.87000006 11316398
0.18597703 -0.29663712 0.87200004 11119019
0.19052477 -0.29731748 0.87400001 11250607
0.19486867 -0.29765767 0.87500006 11382193
0.199222 -0.29799783 0.87600005 11250607
0.20358476 -0.298338 0.87700003 11316400
0.20795694 -0.29867819 0.87800002 11382193
0.21233857 -0.29901838 0.87900007 11513779
0.21648334 -0.29901838 0.87900007 11447986
0.22188309 -0.30071929 0.88400006 11579572
0.35370335 -0.45380038 1.3340001 11974330
0.36889899 -0.46502632 1.3670001 12171709
0.39923289 -0.49462199 1.4540001 12237502
0.45524418 -0.55449373 1.6300001 12237502
0.44304967 -0.53068107 1.5600001 12368831
0.45040557 -0.53068107 1.5600001 12368831
0.45776147 -0.53068107 1.5600001 12303038
0.42039457 -0.47965404 1.4100001 12105659
0.42704317 -0.47965404 1.4100001 11842487
0.43369177 -0.47965404 1.4100001 12039096
0.44034037 -0.47965404 1.4100001 11776692
0.44698894 -0.47965404 1.4100001 11645106
0.45363754 -0.47965404 1.4100001 11645106
0.2866179 -0.29867819 0.87800002 11776694
0.29075795 -0.29867819 0.87800002 11513779
0.294898 -0.29867819 0.87800002 11579315
0.29665393 -0.29629692 0.87100005 11513522
0.30007035 -0.29561657 0.86900002 11513522
0.30381796 -0.29527637 0.86800003 11579315
0.30791083 -0.29527637 0.86800003 11513522
0.31164429 -0.29493621 0.86700004 11579315
0.31536832 -0.29459605 0.86600006 11513522
0.31945178 -0.29459605 0.86600006 11513522
0.32316166 -0.29425585 0.86500007 11579315
0.3268621 -0.29391566 0.86400002 11579315
0.33093613 -0.29391566 0.86400002 11645108
0.33462241 -0.2935755 0.86300004 11644338
0.33869171 -0.2935755 0.86300004 11710131
0.34276104 -0.2935755 0.86300004 11644338
0.34683037 -0.2935755 0.86300004 11907510
0.35130629 -0.29391566 0.86400002 11710131
0.35538033 -0.29391566 0.86400002 11710131
0.35987043 -0.29425585 0.86500007 11907510
0.36436993 -0.29459605 0.86600006 11775924
0.36887884 -0.29493621 0.86700004 11775924
0.3733972 -0.29527637 0.86800003 11775924
0.3774901 -0.29527637 0.86800003 11710131
0.38114339 -0.29493621 0.86700004 11907510
0.38523158 -0.29493621 0.86700004 11973303
0.38887072 -0.29459605 0.86600006 11907510
0.3929542 -0.29459605 0.86600006 12039096
0.39657921 -0.29425585 0.86500007 12039096
0.40065792 -0.29425585 0.86500007 11973303
0.4047367 -0.29425585 0.86500007 11907510
0.40881544 -0.29425585 0.86500007 11776951
0.41337153 -0.29459605 0.86600006 11842485
0.41745499 -0.29459605 0.86600006 11908278
0.42153847 -0.29459605 0.86600006 11908278
0.42562193 -0.29459605 0.86600006 11908278
0.43020156 -0.29493621 0.86700004 11974073
0.43428975 -0.29493621 0.86700004 12039866
0.43837795 -0.29493621 0.86700004 11974073
0.44297644 -0.29527637 0.86800003 12039866
0.44758442 -0.29561657 0.86900002 11973819
0.45220181 -0.29595676 0.87000006 12105405
0.45682862 -0.29629692 0.87100005 11974073
0.46146488 -0.29663712 0.87200004 12303038
0.46611056 -0.29697728 0.87300003 12171709
0.47022703 -0.29697728 0.87300003 12369088
0.47434351 -0.29697728 0.87300003 12698053
0.91707885 -0.55959642 1.6450001 12895432
0.93158203 -0.56367856 1.6570001 13092811
0.94279689 -0.56571966 1.6630001 12895432
0.97178918 -0.57830626 1.7 12961225
0.97231257 -0.57388395 1.687 12895432
0.98840237 -0.57864648 1.7010001 12698823
1.0087247 -0.58579028 1.7220001 12172477
1.0050343 -0.57898664 1.702 12172475
1.0130599 -0.57898664 1.702 12172475
1.0210853 -0.57898664 1.702 12040889
1.0291108 -0.57898664 1.702 12106682
1.0371363 -0.57898664 1.702 11909303
0.54468769 -0.30173981 0.88700002 11450035
0.54825145 -0.30139962 0.88600004 11384242
0.55180568 -0.30105945 0.88500005 11384495
0.55597872 -0.30105945 0.88500005 11384495
0.55951881 -0.30071929 0.88400006 11186863
0.5630495 -0.3003791 0.88300002 11121321
0.5659284 -0.29969874 0.88100004 11187114
0.56878847 -0.29901838 0.87900007 10858919
0.57228136 -0.29867819 0.87800002 10661540
-0.56464553 -0.25461784 0.75900006 8424564
-0.56106657 -0.25461784 0.75900006 8096882
-0.55748767 -0.25461784 0.75900006 8096115
-0.55390877 -0.25461784 0.75900006 7832945
-0.55032986 -0.25461784 0.75900006 7899251
-0.5467509 -0.25461784 0.75900006 8096630
-0.543172 -0.25461784 0.75900006 7964790
-0.53959304 -0.25461784 0.75900006 8031097
-0.53601414 -0.25461784 0.75900006 7964790
-0.53243518 -0.25461784 0.75900006 7964790
-0.52885628 -0.25461784 0.75900006 8161656
-0.52527732 -0.25461784 0.75900006 8030583
-0.52169842 -0.25461784 0.75900006 7898997
-0.51811945 -0.25461784 0.75900006 8030072
-0.51454055 -0.25461784 0.75900006 7898999
-0.90074003 -0.45522583 1.3570001 7636343
-0.89038706 -0.45321301 1.3510001 7570550
-0.49664593 -0.25461784 0.75900006 7767413
-0.493067 -0.25461784 0.75900006 7767413
-0.48948807 -0.25461784 0.75900006 7898999
-0.64653498 -0.34385148 1.0250001 7964792
-0.64295387 -0.34452242 1.0270001 7832693
-0.63935387 -0.34519333 1.029 7964281
-0.46801448 -0.25461784 0.75900006 8095097
-0.46443555 -0.25461784 0.75900006 8028791
-0.46085662 -0.25461784 0.75900006 7897205
-0.45727769 -0.25461784 0.75900006 7897718
-0.45369875 -0.25461784 0.75900006 7831925
-0.45011982 -0.25461784 0.75900006 7831925
-0.44654095 -0.25461784 0.75900006 8095097
-0.44296202 -0.25461784 0.75900006 7963257
-0.43938309 -0.25461784 0.75900006 8094843
-0.43580416 -0.25461784 0.75900006 7832441
-0.43222523 -0.25461784 0.75900006 7963511
-0.80799162 -0.48810136 1.455 7897718
-0.79837781 -0.48642403 1.45 8160636
-0.77570981 -0.47669557 1.4210001 8160123
-0.76630342 -0.4750182 1.416 8160636
-0.75855356 -0.47434729 1.414 8029820
-0.7513544 -0.47401184 1.4130001 8358015
-0.74996197 -0.47736651 1.4230001 8160636
-0.73959583 -0.4750182 1.416 8292741
-0.72670782 -0.47099265 1.404 8292741
-0.71547163 -0.46797347 1.3950001 8555913
-0.70686102 -0.46663159 1.391 8752775
-0.69879162 -0.4656252 1.388 9147020
-0.69025183 -0.46428335 1.3840001 8356481
-0.68224376 -0.46327695 1.381 8750469
-0.67475331 -0.46260604 1.3790001 8750469
-0.66728169 -0.4619351 1.3770001 8947591
-0.66030878 -0.46159962 1.376 8684419
-0.65382051 -0.46159962 1.376 8750722
-0.64827311 -0.46227056 1.378 8487550
-0.64270687 -0.4629415 1.3800001 8487550
-0.63896585 -0.46495429 1.386 8159355
-0.6360808 -0.46763799 1.3940001 7369839
-0.63402349 -0.47099265 1.404 6184536
-0.63276553 -0.4750182 1.416 5592399
-0.63183665 -0.47937927 1.429 5131850
-0.63078517 -0.4837403 1.442 4803912
-0.62917835 -0.48776591 1.4540001 4277568
-0.62745839 -0.49179149 1.4660001 4342591
-0.62604851 -0.49615252 1.4790001 4144955
-0.62535322 -0.50118446 1.4940001 3355437
-0.62493032 -0.50655192 1.5100001 2763554
-0.62394732 -0.51158392 1.5250001 2105627
-0.62282294 -0.51661587 1.5400001 1909018
-0.62075764 -0.5209769 1.5530001 1843225
-0.61777973 -0.52466702 1.5640001 1645848
-0.61430788 -0.52802169 1.5740001 1317653
-0.61035603 -0.53104085 1.5830001 1185297
-0.60555768 -0.53338909 1.59 1185297
-0.59956485 -0.53473097 1.5940001 1119504
-0.59316289 -0.5357374 1.5970001 1053711
-0.58599925 -0.53607285 1.598 1316883
-0.57810217 -0.5357374 1.5970001 1119502
-0.56985724 -0.53506643 1.595 1053711
-0.56127864 -0.53406006 1.5920001 856849
-0.55307615 -0.53338909 1.59 857102
-0.54523569 -0.53305364 1.5890001 857102
-0.5374046 -0.53271818 1.5880001 988688
-0.53058404 -0.53338909 1.59 1317653
-0.5237447 -0.53406006 1.5920001 2106916
-0.51753497 -0.53540188 1.5960001 2435111
-0.51128757 -0.53674376 1.6 2237985
-0.50500244 -0.53808564 1.6040001 1382676
-0.49836943 -0.539092 1.6070001 1382676
-0.49170813 -0.54009843 1.6100001 1316881
-0.48441711 -0.54043388 1.6110001 1185297
-0.47711673 -0.54076934 1.6120001 1185297
-0.46980688 -0.54110479 1.613 1448467
-0.46248767 -0.54144025 1.6140001 1054479
-0.45515898 -0.54177576 1.6150001 1186065
-0.44809794 -0.54244667 1.6170001 1513233
-0.44047326 -0.54244667 1.6170001 1316881
-0.43311626 -0.54278213 1.618 1382674
-0.42548686 -0.54278213 1.618 1382674
-0.41811574 -0.54311758 1.6190001 1186067
-0.41048163 -0.54311758 1.6190001 1251860
-0.40284756 -0.54311758 1.6190001 1251860
-0.39521343 -0.54311758 1.6190001 1316883
-0.38757935 -0.54311758 1.6190001 1382674
-0.37971056 -0.54278213 1.618 1316881
-0.37185121 -0.54244667 1.6170001 1382674
-0.36400127 -0.54211122 1.6160001 1185297
-0.35616082 -0.54177576 1.6150001 1382676
-0.34832975 -0.54144025 1.6140001 1382674
-0.34029701 -0.54076934 1.6120001 1382674
-0.33248955 -0.54043388 1.6110001 1382674
-0.3246915 -0.54009843 1.6100001 1382674
-0.31690285 -0.53976297 1.6090001 1514260
-0.30912367 -0.53942746 1.608 1448467
-0.30154145 -0.53942746 1.608 1383446
-0.29377639 -0.539092 1.6070001 1317653
-0.28619888 -0.539092 1.6070001 1448469
-0.27862135 -0.539092 1.6070001 1317651
-0.27104384 -0.539092 1.6070001 1449237
-0.26346633 -0.539092 1.6070001 1317653
-0.25604802 -0.53942746 1.608 1580053
-0.2486203 -0.53976297 1.6090001 1514260
-0.24103338 -0.53976297 1.6090001 1645846
-0.23359151 -0.54009843 1.6100001 1514260
-0.22599983 -0.54009843 1.6100001 1514260
-0.2184082 -0.54009843 1.6100001 1448467
-0.21081652 -0.54009843 1.6100001 1514260
-0.20322485 -0.54009843 1.6100001 1580053
-0.19539015 -0.53942746 1.608 1514260
-0.18769112 -0.539092 1.6070001 1645076
-0.17988944 -0.53842109 1.605 1645076
-0.17199926 -0.53741473 1.6020001 1514260
-0.16424002 -0.53674376 1.6 1514260
-0.15649964 -0.53607285 1.598 1645846
-0.14887135 -0.5357374 1.5970001 1645846
-0.14125246 -0.53540188 1.5960001 1777432
-0.13372682 -0.53540188 1.5960001 1843225
-0.12620117 -0.53540188 1.5960001 1645846
-0.11874988 -0.5357374 1.5970001 1777432
-0.11128914 -0.53607285 1.598 1777432
-0.10388392 -0.53674376 1.6 1777432
-0.096399628 -0.53707922 1.6010001 1777432
-0.088905901 -0.53741473 1.6020001 2039834
-0.081453517 -0.53808564 1.6040001 2105627
-0.073936209 -0.53842109 1.605 1974041
-0.066368118 -0.53842109 1.605 1974041
-0.058836669 -0.53875655 1.6060001 2039834
-0.051295787 -0.539092 1.6070001 2040604
-0.043745473 -0.53942746 1.608 2040604
-0.036163237 -0.53942746 1.608 1974811
-0.028581005 -0.53942746 1.608 2040604
-0.020998772 -0.53942746 1.608 2040604
-0.013416537 -0.53942746 1.608 2171420
-0.0058343033 -0.53942746 1.608 2040604
0.0017479307 -0.53942746 1.608 2237985
0.0093301646 -0.53942746 1.608 2237985
0.016912399 -0.53942746 1.608 2303778
0.024494633 -0.53942746 1.608 2106399
0.032076865 -0.53942746 1.608 2368801
0.039659102 -0.53942746 1.608 2368801
0.04721196 -0.539092 1.6070001 2368801
0.054755382 -0.53875655 1.6060001 2368801
0.062328186 -0.53875655 1.6060001 2434594
0.069813944 -0.53808564 1.6040001 2500387
0.077136114 -0.53640831 1.5990001 2500387
0.084569998 -0.5357374 1.5970001 2566180
0.09192735 -0.53473097 1.5940001 2631973
0.09944357 -0.53473097 1.5940001 2697509
0.10695979 -0.53473097 1.5940001 2763302
0.11447601 -0.53473097 1.5940001 2894888
0.12199223 -0.53473097 1.5940001 2894888
0.12950845 -0.53473097 1.5940001 3223853
0.13702467 -0.53473097 1.5940001 3223853
0.14454088 -0.53473097 1.5940001 3487282
0.15205711 -0.53473097 1.5940001 5724244
0.15877245 -0.53204727 1.5860001 5724244
0.16541237 -0.52936351 1.5780001 5658451
0.097599581 -0.29889917 0.89100003 6645346
0.10180093 -0.29889917 0.89100003 6908265
0.10600228 -0.29889917 0.89100003 8026489
0.11007995 -0.29856372 0.89000005 9408142
0.11414819 -0.29822826 0.88900006 9934745
0.11807386 -0.29755732 0.88700002 10197917
0.12170503 -0.29621544 0.88300002 10066331
0.12544103 -0.29520908 0.88000005 10197917
0.1288542 -0.29353175 0.87500006 10066331
0.13237219 -0.2921899 0.87100005 9934488
0.13585246 -0.29084802 0.86700004 9144200
0.13929501 -0.28950617 0.86300004 9539987
0.14286596 -0.28849977 0.86000001 10527652
0.14657946 -0.28782883 0.85800004 10921642
0.15044965 -0.28749338 0.85700005 11053228
0.15449068 -0.28749338 0.85700005 11119791
0.15853171 -0.28749338 0.85700005 11316916
0.16295213 -0.28816429 0.85900003 11382709
0.16739143 -0.28883526 0.86100006 11382709
0.17184958 -0.28950617 0.86300004 11776697
0.17653044 -0.29051256 0.86600006 11118767
0.18103102 -0.2911835 0.86800003 11119021
0.18576376 -0.2921899 0.87100005 11119021
0.19008879 -0.29252535 0.87200004 11250607
0.19464596 -0.29319626 0.87400001 11119021
0.19899458 -0.29353175 0.87500006 11382193
0.20335262 -0.2938672 0.87600005 11382193
0.20772009 -0.29420269 0.87700003 11382193
0.21185541 -0.29420269 0.87700003 11382193
0.21623704 -0.29453814 0.87800002 11513779
0.34871525 -0.44918746 1.3390001 11711158
0.36086226 -0.45656767 1.3610001 11908537
0.37105787 -0.46126419 1.3750001 12171709
0.39758542 -0.48575312 1.4480001 12434624
0.4356938 -0.52332515 1.5600001 12303038
0.45923802 -0.54244667 1.6170001 12434624
0.47639051 -0.55351698 1.6500001 12500417
0.45776147 -0.52332515 1.5600001 12105659
0.42039457 -0.47300544 1.4100001 12039866
0.42704317 -0.47300544 1.4100001 11908280
0.43369177 -0.47300544 1.4100001 11776694
0.44034037 -0.47300544 1.4100001 11579572
0.44698894 -0.47300544 1.4100001 11579570
0.45363754 -0.47300544 1.4100001 11316398
0.2866179 -0.29453814 0.87800002 11447727
0.29075795 -0.29453814 0.87800002 11645106
0.294898 -0.29453814 0.87800002 11513779
0.29733512 -0.29286081 0.87300003 11579315
0.30076098 -0.2921899 0.87100005 11579315
0.30451801 -0.29185444 0.87000006 11513522
0.30826557 -0.29151896 0.86900002 11579315
0.31200373 -0.2911835 0.86800003 11513522
0.31573248 -0.29084802 0.86700004 11579315
0.31945178 -0.29051256 0.86600006 11644338
0.32316166 -0.29017711 0.86500007 11710131
0.3268621 -0.28984162 0.86400002 11775924
0.33055311 -0.28950617 0.86300004 11775924
0.33462241 -0.28950617 0.86300004 11644338
0.33829927 -0.28917071 0.86200005 11644338
0.34276104 -0.28950617 0.86300004 11644338
0.34683037 -0.28950617 0.86300004 11710131
0.3508997 -0.28950617 0.86300004 11644338
0.35538033 -0.28984162 0.86400002 11710131
0.35987043 -0.29017711 0.86500007 11710131
0.36436993 -0.29051256 0.86600006 11644338
0.36887884 -0.29084802 0.86700004 11775411
0.3733972 -0.2911835 0.86800003 11775924
0.3774901 -0.2911835 0.86800003 11973303
0.38114339 -0.29084802 0.86700004 11907510
0.38478726 -0.29051256 0.86600006 11776694
0.38842168 -0.29017711 0.86500007 11776694
0.39250043 -0.29017711 0.86500007 11776694
0.3961207 -0.28984162 0.86400002 11776694
0.4001947 -0.28984162 0.86400002 11775670
0.4047367 -0.29017711 0.86500007 11972790
0.40881544 -0.29017711 0.86500007 12038583
0.41289419 -0.29017711 0.86500007 12039096
0.41745499 -0.29051256 0.86600006 11973303
0.42153847 -0.29051256 0.86600006 11974073
0.42562193 -0.29051256 0.86600006 11908280
0.43020156 -0.29084802 0.86700004 11842487
0.43428975 -0.29084802 0.86700004 11908280
0.43837795 -0.29084802 0.86700004 12039866
0.44297644 -0.2911835 0.86800003 12105659
0.44706935 -0.2911835 0.86800003 12105659
0.45168203 -0.29151896 0.86900002 12237245
0.45630416 -0.29185444 0.87000006 12237245
0.46093568 -0.2921899 0.87100005 12368831
0.46611056 -0.29286081 0.87300003 12303038
0.47076565 -0.29319626 0.87400001 12434624
0.47380015 -0.29252535 0.87200004 12434881
0.87526673 -0.52667981 1.5700001 12698053
0.91302913 -0.54479492 1.6240001 12632260
0.92465526 -0.54714316 1.631 12829639
0.94835192 -0.5565362 1.659 12763846
0.95386922 -0.55519432 1.6550001 12632260
0.97038913 -0.56022632 1.6700001 12369086
0.99700886 -0.57096118 1.702 12238270
1.0050343 -0.57096118 1.702 12172477
1.0130599 -0.57096118 1.702 12040889
1.0210853 -0.57096118 1.702 12040889
1.0291108 -0.57096118 1.702 11712694
1.0371363 -0.57096118 1.702 11581108
0.54284549 -0.29655093 0.88400006 11581108
0.546395 -0.29621544 0.88300002 11646131
0.55055863 -0.29621544 0.88300002 11383212
0.55472225 -0.29621544 0.88300002 11252909
0.55825293 -0.29587999 0.88200003 11122093
0.56177419 -0.29554453 0.88100004 10990507
0.56464368 -0.29487363 0.87900007 10990505
0.56814134 -0.29453814 0.87800002 10595747
0.57097781 -0.2938672 0.87600005 10793126
-0.56464553 -0.25103891 0.75900006 8031089
-0.56106657 -0.25103891 0.75900006 8030835
-0.55748767 -0.25103891 0.75900006 8228214
-0.55390877 -0.25103891 0.75900006 8228216
-0.55032986 -0.25103891 0.75900006 8096630
-0.5467509 -0.25103891 0.75900006 8096630
-0.543172 -0.25103891 0.75900006 7965558
-0.53959304 -0.25103891 0.75900006 7965558
-0.53601414 -0.25103891 0.75900006 8096630
-0.53243518 -0.25103891 0.75900006 8161910
-0.52885628 -0.25103891 0.75900006 8030070
-0.52527732 -0.25103891 0.75900006 7899251
-0.52169842 -0.25103891 0.75900006 7767665
-0.51811945 -0.25103891 0.75900006 7636593
-0.90780717 -0.44915786 1.358 7965304
-0.9027313 -0.44981933 1.36 7636341
-0.89631855 -0.44981933 1.36 7898999
-0.88663399 -0.4481656 1.355 7767413
-0.493067 -0.25103891 0.75900006 7701618
-0.48948807 -0.25103891 0.75900006 7964792
-0.48590913 -0.25103891 0.75900006 8030074
-0.4823302 -0.25103891 0.75900006 7963509
-0.47875127 -0.25103891 0.75900006 8095095
-0.47517234 -0.25103891 0.75900006 7897718
-0.47159341 -0.25103891 0.75900006 7701622
-0.46801448 -0.25103891 0.75900006 7767415
-0.46443555 -0.25103891 0.75900006 7766648
-0.46085662 -0.25103891 0.75900006 7832441
-0.45727769 -0.25103891 0.75900006 7700855
-0.45369875 -0.25103891 0.75900006 7701622
-0.45011982 -0.25103891 0.75900006 7899001
-0.44654095 -0.25103891 0.75900006 7701622
-0.44296202 -0.25103891 0.75900006 7766648
-0.74600136 -0.43328187 1.3100001 8160636
-0.74095374 -0.43394336 1.312 8028537
-0.80869204 -0.47760233 1.4440001 8028537
-0.80132776 -0.47727156 1.4430001 8226170
-0.79287177 -0.47627932 1.4400001 8028791
-0.78389817 -0.47495633 1.4360001 8028537
-0.76467991 -0.46734908 1.4130001 7897464
-0.75694418 -0.46668756 1.411 7964027
-0.7497592 -0.46635684 1.4100001 8292224
-0.75048894 -0.47098732 1.424 8292224
-0.73959583 -0.46834132 1.416 8161408
-0.72670782 -0.46437234 1.404 8292994
-0.71495867 -0.46106485 1.3940001 8424580
-0.70635289 -0.45974186 1.3900001 8818568
-0.6982882 -0.45874959 1.3870001 9147533
-0.69025183 -0.45775735 1.3840001 8094592
-0.68174976 -0.45643437 1.3800001 8553860
-0.67426395 -0.45577285 1.378 8750469
-0.6667971 -0.45511135 1.376 8816005
-0.65982896 -0.45478061 1.3750001 8947844
-0.65334541 -0.45478061 1.3750001 8684672
-0.64733225 -0.45511135 1.376 8684929
-0.64224112 -0.45610359 1.3790001 8553343
-0.63850486 -0.4580881 1.3850001 8093562
-0.63562447 -0.46073407 1.393 6909035
-0.63357192 -0.46404159 1.4030001 5987159
-0.63276553 -0.46834132 1.416 5724244
-0.63183665 -0.47264105 1.429 4803142
-0.63078517 -0.47694081 1.442 5000264
-0.62917835 -0.48090982 1.4540001 4539713
-0.62745839 -0.48487881 1.4660001 4276798
-0.62647176 -0.48950928 1.48 3815988
-0.62577182 -0.49447057 1.4950001 3027499
-0.62534416 -0.49976254 1.511 2501157
-0.62476563 -0.50505453 1.5270001 2368799
-0.62363178 -0.51001579 1.5420001 2105627
-0.62195677 -0.51464629 1.5560001 1776662
-0.61975473 -0.51894605 1.5690001 1514260
-0.61664957 -0.52258426 1.58 1448469
-0.61266947 -0.52556103 1.5890001 1382676
-0.60822368 -0.528207 1.5970001 1316883
-0.60257399 -0.52986073 1.6020001 987918
-0.59613425 -0.53085297 1.605 1119504
-0.58893287 -0.53118372 1.6060001 1053711
-0.5813601 -0.53118372 1.6060001 922895
-0.57307279 -0.53052223 1.6040001 922895
-0.56445169 -0.52952999 1.6010001 1053711
-0.55585891 -0.52853775 1.598 922123
-0.54763758 -0.52787626 1.5960001 922893
-0.53977352 -0.52754545 1.595 857102
-0.53258628 -0.52787626 1.5960001 1449239
-0.52604759 -0.5288685 1.5990001 2238502
-0.51980484 -0.53019148 1.603 2633260
-0.51384401 -0.53184521 1.608 1448469
-0.50783592 -0.533499 1.613 1185297
-0.50147063 -0.53482199 1.6170001 1185297
-0.49476221 -0.53581423 1.6200001 988688
-0.48802543 -0.53680646 1.623 988688
-0.48096445 -0.53746802 1.6250001 1054481
-0.47388455 -0.53812951 1.6270001 1316883
-0.46678588 -0.538791 1.6290001 1382674
-0.45966825 -0.53945249 1.631 1251858
-0.45225471 -0.53978324 1.6320001 1185295
-0.44510409 -0.54044473 1.6340001 1185295
-0.43766695 -0.54077548 1.6350001 989199
-0.43022034 -0.54110622 1.636 923406
-0.42276433 -0.54143697 1.6370001 1054479
-0.41529891 -0.54176772 1.6380001 1186067
-0.40757522 -0.54176772 1.6380001 1186067
-0.39985153 -0.54176772 1.6380001 857102
-0.39212787 -0.54176772 1.6380001 1054481
-0.38416946 -0.54143697 1.6370001 988686
-0.37622049 -0.54110622 1.636 1185295
-0.36828101 -0.54077548 1.6350001 1185295
-0.36013043 -0.54011399 1.6330001 1382674
-0.35221446 -0.53978324 1.6320001 1316881
-0.34430796 -0.53945249 1.631 1185295
-0.33641091 -0.53912175 1.6300001 1185295
-0.32832158 -0.5384602 1.628 1316883
-0.32044807 -0.53812951 1.6270001 1316881
-0.31258398 -0.5377987 1.626 1382674
-0.3047294 -0.53746802 1.6250001 1316883
-0.29688418 -0.53713721 1.6240001 1185297
-0.28904837 -0.53680646 1.623 1317651
-0.28122205 -0.53647572 1.6220001 1054479
-0.27357382 -0.53647572 1.6220001 1251858
-0.26592556 -0.53647572 1.6220001 1382676
-0.25843653 -0.53680646 1.623 1316881
-0.25078356 -0.53680646 1.623 1448467
-0.24328041 -0.53713721 1.6240001 1448467
-0.23576783 -0.53746802 1.6250001 1448467
-0.22824579 -0.5377987 1.626 1382674
-0.2205787 -0.5377987 1.626 1382676
-0.21291158 -0.5377987 1.626 1316883
-0.20511825 -0.53746802 1.6250001 1448469
-0.19733433 -0.53713721 1.6240001 1514262
-0.18955985 -0.53680646 1.623 1448467
-0.18168274 -0.53614497 1.6210001 1514260
-0.17382447 -0.53548348 1.6190001 1514260
-0.16598508 -0.53482199 1.6170001 1514260
-0.15826246 -0.53449124 1.6160001 1448467
-0.15045607 -0.53382975 1.6140001 1580053
-0.14284554 -0.53382975 1.6140001 1777432
-0.13515122 -0.533499 1.613 1645846
-0.12762448 -0.53382975 1.6140001 1645076
-0.12001397 -0.53382975 1.6140001 1776662
-0.11247308 -0.53416049 1.6150001 1776662
-0.10492276 -0.53449124 1.6160001 1776662
-0.097363025 -0.53482199 1.6170001 1645846
-0.089793846 -0.53515273 1.618 1777432
-0.082215242 -0.53548348 1.6190001 1777432
-0.074627206 -0.53581423 1.6200001 1909018
-0.067029737 -0.53614497 1.6210001 1777432
-0.059422839 -0.53647572 1.6220001 1843225
-0.051774587 -0.53647572 1.6220001 1909018
-0.044153545 -0.53680646 1.623 1777432
-0.036500581 -0.53680646 1.623 1909018
-0.028847618 -0.53680646 1.623 1909018
-0.021181596 -0.53647572 1.6220001 1909018
-0.013533348 -0.53647572 1.6220001 1843225
-0.0058814711 -0.53614497 1.6210001 1909018
0.001760975 -0.53581423 1.6200001 2040604
0.009399794 -0.53581423 1.6200001 2106397
0.017028093 -0.53548348 1.6190001 1974811
0.024646962 -0.53515273 1.618 2040604
0.032256402 -0.53482199 1.6170001 2106397
0.039856412 -0.53449124 1.6160001 2040604
0.047417611 -0.53382975 1.6140001 2040606
0.054959949 -0.53316826 1.6120001 2303778
0.062522233 -0.53283751 1.6110001 2106399
0.069988042 -0.53184521 1.608 2106399
0.077136114 -0.5288685 1.5990001 2303778
0.084569998 -0.528207 1.5970001 2369571
0.09192735 -0.52721477 1.5940001 2369571
0.09944357 -0.52721477 1.5940001 2303778
0.10695979 -0.52721477 1.5940001 2435364
0.11447601 -0.52721477 1.5940001 2698536
0.12199223 -0.52721477 1.5940001 2435364
0.12950845 -0.52721477 1.5940001 2829352
0.13702467 -0.52721477 1.5940001 3026731
0.14454088 -0.52721477 1.5940001 4473150
0.15205711 -0.52721477 1.5940001 5592401
0.15877245 -0.52456874 1.5860001 5461072
0.16541237 -0.52192277 1.5780001 5725014
0.097599581 -0.29469782 0.89100003 6447967
0.10180093 -0.29469782 0.89100003 6842725
0.10600228 -0.29469782 0.89100003 8026999
0.11007995 -0.29436707 0.89000005 9276809
0.11401979 -0.29370558 0.88800007 9803159
0.11794075 -0.29304409 0.88600004 9868954
0.12170503 -0.29205182 0.88300002 10132126
0.12529849 -0.29072884 0.87900007 10197917
0.12870693 -0.28907508 0.87400001 10066331
0.13222021 -0.28775209 0.87000006 9538960
0.13553908 -0.28609836 0.86500007 8684421
0.1391336 -0.28510609 0.86200005 9605521
0.14269984 -0.28411385 0.85900003 10396068
0.14623779 -0.28312162 0.85600007 10658986
0.15009853 -0.28279084 0.85500002 10790572
0.15413015 -0.28279084 0.85500002 11251123
0.15816173 -0.28279084 0.85500002 11381939
0.16238303 -0.28312162 0.85600007 11447732
0.16700259 -0.28411385 0.85900003 11580088
0.17145133 -0.28477535 0.86100006 11645881
0.17612274 -0.28576759 0.86400002 11184303
0.18082246 -0.28675985 0.86700004 11119021
0.1853372 -0.28742135 0.86900002 11250607
0.1898708 -0.28808284 0.87100005 11119021
0.19442324 -0.28874433 0.87300003 11316400
0.19876714 -0.28907508 0.87400001 11250607
0.20312048 -0.28940585 0.87500006 11119021
0.20748325 -0.2897366 0.87600005 11316400
0.21161385 -0.2897366 0.87600005 11382193
0.21599075 -0.29006734 0.87700003 11711158
0.21987508 -0.2897366 0.87600005 11776951
0.36404398 -0.45411909 1.373 11974330
0.38293168 -0.46933356 1.419 12237502
0.41186339 -0.4961243 1.5000001 12434881
0.42982867 -0.50902349 1.539 12368831
0.45213786 -0.52655327 1.5920001 12368831
0.43770179 -0.50141627 1.516 12500417
0.44485024 -0.50141627 1.516 12237245
0.42039457 -0.46635684 1.4100001 12105659
0.42704317 -0.46635684 1.4100001 11842744
0.43369177 -0.46635684 1.4100001 11579572
0.44034037 -0.46635684 1.4100001 11579572
0.44698894 -0.46635684 1.4100001 11775924
0.45363754 -0.46635684 1.4100001 11776694
0.2866179 -0.29039809 0.87800002 11579315
0.29075795 -0.29039809 0.87800002 11710131
0.29590562 -0.29139033 0.88100004 11447729
0.29801631 -0.28940585 0.87500006 11447986
0.30145159 -0.28874433 0.87300003 11513779
0.30486801 -0.28808284 0.87100005 11513522
0.3086203 -0.28775209 0.87000006 11513522
0.31200373 -0.2870906 0.86800003 11579315
0.31573248 -0.28675985 0.86700004 11710131
0.31945178 -0.28642911 0.86600006 11710131
0.32316166 -0.28609836 0.86500007 11512752
0.3268621 -0.28576759 0.86400002 11644338
0.33055311 -0.28543684 0.86300004 11907510
0.33423468 -0.28510609 0.86200005 11775924
0.33829927 -0.28510609 0.86200005 11710131
0.34236389 -0.28510609 0.86200005 11579315
0.34683037 -0.28543684 0.86300004 11579315
0.3508997 -0.28543684 0.86300004 11513522
0.35538033 -0.28576759 0.86400002 11907510
0.35987043 -0.28609836 0.86500007 11710131
0.36436993 -0.28642911 0.86600006 11710131
0.36887884 -0.28675985 0.86700004 11775924
0.37296703 -0.28675985 0.86700004 11775409
0.3770552 -0.28675985 0.86700004 11710129
0.38070378 -0.28642911 0.86600006 11644338
0.38434294 -0.28609836 0.86500007 11645108
0.38842168 -0.28609836 0.86500007 11579315
0.39204666 -0.28576759 0.86400002 11776694
0.39566225 -0.28543684 0.86300004 11776694
0.39973155 -0.28543684 0.86300004 11710131
0.40426877 -0.28576759 0.86400002 11907510
0.40834281 -0.28576759 0.86400002 12039096
0.41289419 -0.28609836 0.86500007 11907510
0.41697294 -0.28609836 0.86500007 12039096
0.42153847 -0.28642911 0.86600006 11908280
0.42562193 -0.28642911 0.86600006 11974073
0.43020156 -0.28675985 0.86700004 11974073
0.43428975 -0.28675985 0.86700004 11974073
0.43837795 -0.28675985 0.86700004 12039866
0.44246611 -0.28675985 0.86700004 12237245
0.44706935 -0.2870906 0.86800003 12237245
0.45168203 -0.28742135 0.86900002 12237245
0.45630416 -0.28775209 0.87000006 12302784
0.46093568 -0.28808284 0.87100005 12368831
0.46504274 -0.28808284 0.87100005 12434624
0.46968842 -0.28841358 0.87200004 12368831
0.47325683 -0.28808284 0.87100005 12368831
0.47736382 -0.28808284 0.87100005 12566210
0.896725 -0.52754545 1.595 12500417
0.91161597 -0.53184521 1.608 12632260
0.91176689 -0.52754545 1.595 12434881
0.93946034 -0.53912175 1.6300001 12434881
0.95702451 -0.54474449 1.6470001 12171709
0.96479064 -0.54474449 1.6470001 12171709
0.97255677 -0.54474449 1.6470001 12040121
0.9803229 -0.54474449 1.6470001 11843512
0.52494109 -0.28940585 0.87500006 11711924
0.52906698 -0.28940585 0.87500006 11581110
0.53319287 -0.28940585 0.87500006 11450037
0.54038918 -0.29105958 0.88000005 11253428
0.54515743 -0.29139033 0.88100004 11121840
0.54931158 -0.29139033 0.88100004 11252143
0.55346578 -0.29139033 0.88100004 11252396
0.55698705 -0.29105958 0.88000005 11120810
0.56049889 -0.29072884 0.87900007 10792358
0.56400126 -0.29039809 0.87800002 10989224
0.56684721 -0.2897366 0.87600005 11055015
0.57032603 -0.28940585 0.87500006 10857890
-0.56464553 -0.24745996 0.75900006 8096630
-0.56106657 -0.24745996 0.75900006 7965044
-0.55748767 -0.24745996 0.75900006 8030837
-0.55390877 -0.24745996 0.75900006 7833972
-0.55032986 -0.24745996 0.75900006 7899765
-0.5467509 -0.24745996 0.75900006 8096630
-0.543172 -0.24745996 0.75900006 7899251
-0.53959304 -0.24745996 0.75900006 7767663
-0.53601414 -0.24745996 0.75900006 8096630
-0.53243518 -0.24745996 0.75900006 7701872
-0.52885628 -0.24745996 0.75900006 7767411
-0.52527732 -0.24745996 0.75900006 7898997
-0.52169842 -0.24745996 0.75900006 7767925
-0.51811945 -0.24745996 0.75900006 7833718
-0.9091441 -0.44340649 1.36 7636339
-0.9027313 -0.44340649 1.36 7570546
-0.8969776 -0.44373256 1.3610001 7570546
-0.89056009 -0.44373256 1.3610001 7439732
-0.88284326 -0.44308048 1.3590001 7570548
-0.87579018 -0.44275445 1.358 7833718
-0.48590913 -0.24745996 0.75900006 7832693
-0.4823302 -0.24745996 0.75900006 7963509
-0.47875127 -0.24745996 0.75900006 8160888
