# .PCD v0.7 - Point Cloud Data file format
VERSION 0.7
FIELDS x y z rgb
SIZE 4 4 4 4
TYPE F F F U
COUNT 1 1 1 1
WIDTH 1129
HEIGHT 1
VIEWPOINT 0 0 0 1 0 0 0
POINTS 1129
DATA ascii
0.52533948 0.16492912 0.84574997 10328729
0.5339461 0.16512413 0.84675008 10263703
0.54441053 0.16526939 0.84750009 10131859
0.11674311 0.175157 0.84700006 7369578
0.12373284 0.17495827 0.84362501 7698022
0.13582474 0.17600475 0.84150004 8158054
0.14591897 0.17621508 0.84250003 8881269
0.15540119 0.17447157 0.84366673 9671565
0.16477884 0.17524441 0.84500003 9606031
0.17420793 0.17470972 0.84483337 9606031
0.18420301 0.1747434 0.84500015 9671824
0.19600055 0.17460449 0.84433335 9869204
0.20575118 0.17443162 0.84349996 9934996
0.21539508 0.17419192 0.84233338 9934997
0.22496966 0.17589898 0.84100002 10000789
0.2348363 0.17586374 0.84083337 10197654
0.24450651 0.17568983 0.84000003 10197655
0.25440869 0.17568983 0.84000009 10131863
0.26495963 0.17466512 0.84080011 10197912
0.27453947 0.17391305 0.84100008 10197913
0.28456619 0.17398356 0.84133339 10263194
0.29369882 0.17498811 0.84071434 10263195
0.30391955 0.17568985 0.84000003 10328731
0.47452033 0.17579441 0.8405 10591390
0.48359481 0.1742264 0.84250003 10656927
0.49473095 0.17465305 0.84455562 10525597
0.50515085 0.17481466 0.8453334 10591389
0.5150227 0.17445388 0.84600008 10394524
0.52481556 0.1755805 0.84628582 10132120
0.5350464 0.17547292 0.84612507 10132118
0.54467624 0.17440648 0.84614289 10000789
0.11550056 0.18595462 0.84766674 7829618
0.12440864 0.18466847 0.84483331 7698031
0.13415886 0.1843778 0.84350002 7698030
0.14436014 0.18470608 0.84500009 8553083
0.15459362 0.18503356 0.84650004 9605775
0.16450681 0.1849599 0.84616667 9606289
0.17439595 0.18486784 0.84575003 9605776
0.18416589 0.18466766 0.84483337 9737363
0.19584526 0.18441306 0.84366661 9868948
0.20562962 0.18426734 0.84300005 9934998
0.21584141 0.18486728 0.84185725 10000789
0.22496967 0.18581295 0.84100002 10066325
0.2342128 0.18517858 0.84037507 10000790
0.24450651 0.18163113 0.84000003 10066072
0.27817389 0.18163113 0.84000003 10131865
0.28451127 0.18479984 0.84000003 10197658
0.29401734 0.18559201 0.84000009 10263194
0.30540484 0.1860871 0.84000009 10328731
0.38511732 0.18757246 0.84000009 10525597
0.39435938 0.18823259 0.83999997 10590875
0.40294126 0.18955287 0.84000003 10656926
0.47485971 0.18488726 0.84040004 10525597
0.48302579 0.18528214 0.84219998 10525599
0.49454528 0.18443672 0.84560001 10394268
0.50506783 0.18558526 0.84720004 10460575
0.51443732 0.18525214 0.84750009 10328987
0.52401453 0.18510564 0.84683341 10066327
0.53525454 0.18485022 0.84566671 10132118
0.54479527 0.1847045 0.84500003 9934994
0.11487928 0.19535674 0.84800005 8093304
0.12453347 0.19482024 0.84566665 8093305
0.13450348 0.19482076 0.84566671 8224891
0.14468178 0.19510129 0.84688896 8948614
0.15468495 0.19512637 0.84700006 9606034
0.16451631 0.19494666 0.84622228 9671826
0.17424111 0.19466405 0.84499997 9671826
0.183935 0.19438249 0.84377778 9672084
0.19561365 0.194126 0.84266669 9934743
0.20534463 0.19393374 0.84183335 9934743
0.21459021 0.19426626 0.84112507 9934742
0.22404204 0.19483404 0.83999997 10066325
0.23064348 0.19351375 0.84000003 10132118
0.29401734 0.19549417 0.84000009 10262681
0.3032594 0.19483404 0.83999997 10263194
0.38511732 0.19549417 0.84000009 10525597
0.39501953 0.19549417 0.84000003 10525341
0.40492168 0.19549417 0.84000009 10590878
0.4762173 0.19351375 0.84000003 10722721
0.48521277 0.19507395 0.84185714 10526112
0.49613017 0.19409573 0.84500015 10591904
0.50614685 0.19512479 0.84700006 10526366
0.51453847 0.19527836 0.84766674 10329499
0.5243237 0.19520265 0.84733343 10263447
0.53477746 0.19449136 0.84671438 10197654
0.54450673 0.19559857 0.84687507 10000531
0.11484601 0.20529208 0.84775007 8093562
0.12458359 0.20486887 0.84600002 8225148
0.1345565 0.20486888 0.84600002 8487807
0.14470023 0.20511107 0.84700006 9277324
0.15463868 0.20504993 0.84675008 9737621
0.16437642 0.20474742 0.84550005 9803157
0.17598844 0.2043438 0.84383339 9868950
0.1855334 0.20588382 0.84200001 9803413
0.19464447 0.20505174 0.84062511 9869207
0.20431821 0.20283572 0.84033328 9934743
0.21281956 0.20143548 0.84000003 10000791
0.37719563 0.20341592 0.84000003 10591389
0.38511732 0.20539635 0.84000009 10525341
0.39501953 0.20539635 0.84000009 10591133
0.40412951 0.20301983 0.84000003 10591133
0.48568511 0.20500383 0.84071434 10591391
0.49552721 0.20538194 0.84320009 10591647
0.50495201 0.20462555 0.84500003 10526365
0.51484543 0.20531575 0.84619999 10263962
0.52466881 0.20461388 0.84660006 10132120
0.53410316 0.20511106 0.84700006 10132117
0.54440898 0.20523095 0.84750009 10000785
0.11481273 0.21522272 0.84750009 8422272
0.12450021 0.21470016 0.84544456 8356735
0.13450427 0.21475635 0.84566671 8685186
0.14464433 0.21501005 0.84666675 9408911
0.15453233 0.21488333 0.84616679 9737621
0.1642576 0.21455856 0.84488899 9803157
0.17581493 0.2140789 0.84299999 9803157
0.18525815 0.21549016 0.84075004 9934486
0.19103479 0.21529852 0.84000003 9934743
0.48697332 0.21472304 0.84033328 10591906
0.49573359 0.21466896 0.8422001 10460575
0.5040549 0.21420534 0.84349996 10394525
0.51450574 0.21441695 0.84433341 10329241
0.5245629 0.21445929 0.84450006 10132631
0.5345518 0.21447077 0.84455568 10066581
0.54436547 0.21441382 0.84433341 9934995
0.11481273 0.2252133 0.84750009 8554115
0.12443475 0.22454816 0.84500009 8685446
0.13435827 0.22448193 0.84475005 8948360
0.14452939 0.2248147 0.84600002 9409169
0.1545023 0.22481468 0.84600002 9672085
0.1642144 0.22446036 0.84466666 9868950
0.17574592 0.22591561 0.84266669 9868950
0.1852396 0.22538023 0.84066671 9934743
0.19103479 0.22718114 0.84000003 9934743
0.48809993 0.2252007 0.83999997 10460832
0.49492463 0.22560282 0.84150004 10395039
0.5046075 0.22657286 0.84299999 10329246
0.51457042 0.22567391 0.84362495 10395036
0.52561831 0.22600497 0.84299999 10066583
0.53502601 0.22578079 0.84216672 9869715
0.54275328 0.2256922 0.84183341 9803921
0.11481273 0.23520388 0.84750009 8817287
0.12433659 0.23432507 0.84433335 8948360
0.1342653 0.23427801 0.8441667 9080203
0.14441654 0.23460153 0.8453334 9474964
0.1543497 0.23455554 0.84516668 9672086
0.16412851 0.2342937 0.84422231 9868951
0.17578144 0.23589624 0.84283334 9868952
0.18547851 0.23559326 0.84175009 9868952
0.19312893 0.23524281 0.8405 9868951
0.48809993 0.23510286 0.84000003 10591648
0.4949246 0.2355227 0.84150004 10460317
0.50544322 0.2358014 0.84250003 10264221
0.5153749 0.2358014 0.84250009 10197913
0.52530652 0.2358014 0.84250003 10066840
0.53523815 0.23580375 0.84250003 9934994
0.54302174 0.2357332 0.84225005 9869457
0.11481272 0.24519446 0.84750009 9079689
0.12440943 0.24442334 0.84483337 9145227
0.13423839 0.24418186 0.84400004 9342863
0.14424545 0.24427752 0.84433335 9606035
0.15540117 0.24607293 0.84366673 9737365
0.16448545 0.24552724 0.84350002 9868951
0.17574747 0.24578126 0.84266669 9868951
0.18560685 0.24568482 0.84233338 9934488
0.1947007 0.24476394 0.84087503 9868952
0.48809993 0.24104416 0.84000003 10197917
0.49534759 0.24347806 0.84020007 10263965
0.50509554 0.24280068 0.84060001 10263707
0.51527852 0.24353547 0.84040004 10132377
0.52550423 0.24472749 0.84100008 9935254
0.53481501 0.24553742 0.84183335 9869713
0.54318386 0.24573265 0.84250003 9869969
0.11492523 0.25543675 0.84833336 9211018
0.12456514 0.2547015 0.84588897 9276812
0.13442357 0.25448325 0.84516668 9474192
0.14422461 0.25419867 0.84422231 9737364
0.15537272 0.25496447 0.84299999 9803157
0.1656329 0.25543767 0.84175003 9868951
0.17539829 0.25520989 0.84100002 9868950
0.18458025 0.25444779 0.84066671 9868951
0.19103479 0.25292677 0.84000003 9934745
0.53563035 0.25490719 0.84000003 9804177
0.54266161 0.25444782 0.84066671 9541774
0.10767772 0.26631218 0.84900004 9342603
0.11484719 0.26525325 0.84775007 9342602
0.12465566 0.26486316 0.8465001 9408396
0.1345565 0.26470631 0.84600002 9539984
0.14430004 0.26428911 0.84466678 9737364
0.15587871 0.26565006 0.84266669 9737364
0.16545273 0.2650713 0.84083337 9868950
0.17222065 0.26381916 0.84000003 9803158
0.097002238 0.27765489 0.84900004 9079170
0.10491107 0.27539915 0.84822226 9276808
0.11474538 0.27500233 0.84700006 9342859
0.12459943 0.27471471 0.84611118 9474189
0.13447659 0.27451527 0.84549999 9539983
0.14428106 0.27420968 0.84455562 9605778
0.15584786 0.27552876 0.84250003 9737364
0.16538635 0.27487504 0.8405 9868693
0.17123044 0.27471155 0.84000003 9868693
0.097002238 0.28566152 0.84900004 9012865
0.10482175 0.2851564 0.84750009 9276807
0.11461069 0.28465208 0.84600002 9342858
0.12448463 0.28442696 0.8453334 9539981
0.13476361 0.28544226 0.8448 9671567
0.14420618 0.28600615 0.84411108 9737360
0.1558376 0.28544247 0.84244448 9802897
0.16545273 0.28489688 0.84083337 9803155
0.17472169 0.28515178 0.84012508 9868948
0.18509349 0.28857461 0.84000003 9803153
0.19103479 0.28857461 0.84000003 9934739
0.097002238 0.29566979 0.84900004 8947586
0.10477261 0.2950114 0.84711123 9276808
0.11451959 0.29439047 0.8453334 9474188
0.124354 0.29408169 0.84444439 9539981
0.13387176 0.29479313 0.84420002 9671567
0.1441877 0.29591838 0.84400004 9737361
0.15587868 0.29545087 0.84266669 9671824
0.16563292 0.29513004 0.84175003 9802640
0.17543383 0.2949253 0.84116668 9999762
0.18525815 0.29477942 0.84075004 9999762
0.19420348 0.29491201 0.84000003 10065301
0.097002238 0.30567801 0.84900004 9013378
0.10518529 0.30539891 0.8458572 9407880
0.11429381 0.30574611 0.84366673 9605259
0.12414181 0.30550528 0.84299999 9605516
0.13423839 0.30586767 0.84400004 9671565
0.14418772 0.30586767 0.84399998 9671567
0.15592085 0.30546448 0.84288889 9868432
0.1656827 0.30514288 0.84200007 9934226
0.17544515 0.30486047 0.84122229 9934225
0.18524037 0.30465809 0.84066671 9999762
0.19261913 0.30362588 0.84000003 9999506
0.097002238 0.31368464 0.84900004 9144449
0.10378672 0.3128264 0.84560001 9473415
0.11427083 0.31364122 0.84350002 9605259
0.12419248 0.31357923 0.84333342 9539979
0.13423839 0.31382713 0.84400004 9671565
0.14418773 0.31382713 0.84400004 9671565
0.15587868 0.31333137 0.8426668 9802895
0.16548592 0.31271163 0.84100002 9933969
0.17525928 0.31246376 0.8403334 9868176
0.18509349 0.31233981 0.84000003 9999762
0.14675029 -0.29221475 0.85900003 11052717
0.1547326 -0.29198799 0.85833335 11382194
0.13864937 -0.28006339 0.85900003 9671318
0.1445127 -0.28572446 0.85775 10789802
0.15425032 -0.28503108 0.8556667 11184817
0.16417582 -0.28524351 0.85833335 11382453
0.13848798 -0.27366877 0.85800004 9276815
0.14526729 -0.27546576 0.85371435 10790313
0.15555298 -0.27569327 0.85175002 11119536
0.16461417 -0.27553681 0.85500002 11382452
0.17095348 -0.2738294 0.8585 11514295
0.13832657 -0.26526773 0.85700005 9276815
0.14596529 -0.26507008 0.85150003 10790058
0.15590081 -0.26777706 0.85000008 11184815
0.16327199 -0.26498768 0.85220003 11447732
0.17055523 -0.26511413 0.85650003 11513525
0.33509666 -0.26386154 0.85900003 11644338
0.34117234 -0.26386154 0.85900003 11775924
0.13654782 -0.25406107 0.85600007 8751241
0.14461143 -0.25584683 0.85119998 10790572
0.1635879 -0.25561073 0.85175002 11776696
0.17264527 -0.25511709 0.85683328 11250609
0.32732418 -0.2548919 0.85880005 11513520
0.33464113 -0.25541404 0.85783333 11513263
0.34486717 -0.25549805 0.85811108 11644592
0.35453677 -0.25296262 0.85866672 11710129
0.36142465 -0.25171015 0.85900003 11710129
0.13404106 -0.24463482 0.85550004 8553862
0.14228979 -0.24621224 0.85050005 10724521
0.15723681 -0.24105689 0.85000002 10922158
0.1635713 -0.24554385 0.85166669 11382709
0.17267886 -0.24506141 0.85700005 11184560
0.32863796 -0.24534854 0.85800004 11513007
0.33620462 -0.24496728 0.85666674 11578800
0.34613696 -0.24484873 0.85625005 11513520
0.35452279 -0.24506378 0.85699999 11644593
0.36498031 -0.24530208 0.85783333 11644594
0.37463471 -0.24477035 0.85833335 11644338
0.38167694 -0.24360926 0.85900003 11710131
0.13347895 -0.23494753 0.85512495 8487812
0.14421073 -0.23404285 0.85000002 10856620
0.15596247 -0.23446824 0.85033339 11185330
0.16401944 -0.23413436 0.85400009 11251123
0.17176698 -0.23610735 0.85750008 10987437
0.32800835 -0.23449571 0.85900003 11447471
0.33578044 -0.23542909 0.856875 11447727
0.34522709 -0.23414771 0.85614294 11579056
0.35424581 -0.23477566 0.85633332 11579056
0.36457744 -0.23492953 0.85688889 11579056
0.37458098 -0.23487018 0.85666674 11644849
0.38503051 -0.23508552 0.85744447 11776179
0.39487281 -0.23262839 0.85833335 11908022
0.40052554 -0.23064953 0.85600007 12105657
0.13546799 -0.22593658 0.85600001 8817034
0.14557289 -0.22558001 0.8521111 10593447
0.15569055 -0.2256835 0.85250002 10659497
0.16440237 -0.22459388 0.85600007 10922412
0.17105305 -0.22538218 0.85900003 10987692
0.31686959 -0.22335695 0.85900003 11578543
0.3257806 -0.22497714 0.85900003 11513007
0.33480349 -0.22518481 0.85825002 11513007
0.34461999 -0.22498745 0.85750002 11447727
0.35514212 -0.22524981 0.85850006 11578800
0.36504808 -0.22511901 0.8580001 11644336
0.37461686 -0.22479124 0.85675007 11579056
0.38430467 -0.22455172 0.85583335 11710386
0.39531046 -0.22398341 0.85519999 12105144
0.40005761 -0.22634846 0.85500002 12433852
0.13848798 -0.21905118 0.85800004 8488067
0.14438692 -0.21677183 0.85699999 8488064
0.15437207 -0.2166044 0.85633343 8750983
0.16411102 -0.21770103 0.85800004 9408658
0.3074185 -0.21255575 0.85900003 11250605
0.3146607 -0.2151323 0.8585 11381934
0.32484546 -0.21517356 0.85866672 11447470
0.33509669 -0.21525604 0.85900003 11381934
0.3452228 -0.21930648 0.85900003 11447727
0.35332373 -0.21930648 0.85900003 11447727
0.36657092 -0.21579818 0.85885715 11578543
0.37494421 -0.21488017 0.85750002 11579056
0.38452893 -0.21458517 0.85633337 11710386
0.39531571 -0.21533261 0.85471433 12170680
0.23991087 -0.20512989 0.85900003 11250605
0.24512747 -0.20239533 0.85600007 11250605
0.25481758 -0.20208009 0.85466671 11053482
0.27636498 -0.20310466 0.85900003 11250605
0.29459208 -0.20310466 0.85900003 11053483
0.30442104 -0.20493205 0.85816664 11250348
0.31429458 -0.20477286 0.85750002 11316141
0.32459378 -0.20489188 0.85800004 11316141
0.33307144 -0.20512989 0.85900003 11316141
0.36728522 -0.20501049 0.8585 11512750
0.37505412 -0.2048308 0.85775006 11579056
0.38498059 -0.20473188 0.85733336 11710129
0.39487377 -0.20561779 0.85600007 11973301
0.23801234 -0.19396852 0.85799998 11053226
0.24503122 -0.19424783 0.8556667 11053226
0.25548789 -0.19552578 0.85420001 11053226
0.26515445 -0.19421077 0.85549998 11053226
0.2751756 -0.19401917 0.85687494 10987690
0.28509876 -0.19522904 0.85742867 11053482
0.29569492 -0.19440152 0.85633337 11184812
0.30567217 -0.19432586 0.85600001 11184812
0.31521291 -0.19379038 0.85587502 11184812
0.32547793 -0.19519256 0.8572858 11250348
0.3349674 -0.19492884 0.85866672 11315628
0.36542732 -0.194978 0.85888898 11512750
0.37516403 -0.19477673 0.85799998 11513007
0.38537869 -0.19482614 0.85822225 11578800
0.39535683 -0.19576749 0.85880005 11841715
0.40395445 -0.19702896 0.85900003 11973301
0.23558271 -0.18466239 0.85800004 10921896
0.24498309 -0.18412431 0.85549998 10856360
0.25462195 -0.18581489 0.85400003 10987690
0.26484531 -0.18390907 0.85450006 10856361
0.27518609 -0.18408923 0.85533333 10922153
0.28515708 -0.18401669 0.85500002 10987689
0.29523608 -0.18401669 0.85500002 11053225
0.30531508 -0.18401669 0.85500002 11053224
0.31551862 -0.18408842 0.85533333 11118762
0.32604527 -0.18433954 0.85650003 11250091
0.33480468 -0.18471676 0.85825002 11184555
0.34441271 -0.18447253 0.85900003 11316141
0.35602403 -0.18420251 0.85900003 11381678
0.36533251 -0.18480663 0.85866672 11447214
0.37549254 -0.18482438 0.85875005 11316141
0.38491732 -0.18528263 0.85900003 11513007
0.2277595 -0.17272621 0.85900003 10856104
0.23552272 -0.17450334 0.85777777 10856359
0.24512668 -0.17413957 0.85600001 10856360
0.25449008 -0.17449135 0.85525 10921897
0.26510242 -0.17400394 0.85533333 10922153
0.27454743 -0.17511797 0.85514289 10987690
0.28515708 -0.17595349 0.85500002 10987690
0.29489079 -0.17574771 0.85400003 11053226
0.30513769 -0.1758506 0.85450006 11053225
0.31551862 -0.1760221 0.85533333 11184554
0.3259176 -0.17417584 0.85616666 11184555
0.33507031 -0.17371187 0.85671431 11250348
0.34497383 -0.17487808 0.85712492 11316141
0.35452163 -0.17434771 0.85700005 11381677
0.36462417 -0.17434773 0.85700005 11447213
0.37509155 -0.17451489 0.85783339 11446957
0.38268954 -0.17576405 0.85900003 11578543
0.22573426 -0.16462529 0.85900003 10725031
0.23558427 -0.16443285 0.85800004 10790824
0.24548483 -0.16428933 0.85725009 10856360
0.25579351 -0.16491392 0.85600001 10856361
0.26530904 -0.16405036 0.85600007 10921897
0.27562165 -0.1653948 0.85512501 10921897
0.28510109 -0.16584294 0.85483336 11053225
0.29489079 -0.16568051 0.85400003 10987432
0.30501789 -0.16571362 0.85416675 11053225
0.3153536 -0.16585347 0.85488892 11119018
0.32537732 -0.16381137 0.85475004 11118761
0.33535585 -0.16376406 0.85450006 11250346
0.34542894 -0.16376406 0.85450006 11250346
0.35550204 -0.16376407 0.85450006 11250347
0.36568266 -0.16381139 0.85475004 11446956
0.3742907 -0.16405152 0.85600007 11446957
0.38348001 -0.16452947 0.8585 11512749
0.22573425 -0.15449914 0.85900003 10790824
0.23582938 -0.15447862 0.85888892 10790824
0.24584299 -0.15440764 0.8585 10856360
0.25500894 -0.15464339 0.85699993 10987432
0.26515287 -0.15588661 0.85550004 10987431
0.27491564 -0.15570478 0.85450006 10987687
0.28473961 -0.15556832 0.85374999 10922151
0.29460225 -0.15546183 0.85316676 10921639
0.30477941 -0.15552336 0.85350001 10987433
0.3149645 -0.15558331 0.85383338 11052969
0.32490209 -0.15552336 0.85350001 11250347
0.33470094 -0.1554011 0.85283345 11118761
0.34462044 -0.15534115 0.85250008 11184553
0.35466996 -0.15534115 0.85250002 11250347
0.36504093 -0.15547721 0.85325003 11316140
0.37385345 -0.15579668 0.85500002 11250090
0.38573033 -0.15480311 0.85787511 11513006
0.39487126 -0.15168206 0.85833335 11512749
0.40395445 -0.15044868 0.85900003 11644078
0.41408062 -0.15044868 0.85900003 11775921
0.42606506 -0.1503903 0.85866666 11710127
0.43610415 -0.15238634 0.85850006 11709873
0.44505054 -0.1518587 0.85780001 11709616
0.45418715 -0.15234256 0.85825002 11578030
0.46444207 -0.15036111 0.8585 11578030
0.47078705 -0.15044868 0.85900003 11578543
0.22573426 -0.144373 0.85900003 10725287
0.24801178 -0.144373 0.85900003 10790824
0.25604776 -0.14487778 0.85685712 10856617
0.26489499 -0.14566047 0.85466671 10790823
0.27464807 -0.14549032 0.85366672 10856616
0.28449005 -0.14537567 0.8530001 10921896
0.29435208 -0.14528149 0.85244459 10987431
0.3043628 -0.14526361 0.85233349 10987431
0.31445187 -0.14528255 0.85244453 11053224
0.32464871 -0.14534803 0.85283345 11053224
0.33467939 -0.14533673 0.85277784 11118760
0.34468782 -0.14531727 0.8526668 11184553
0.35473931 -0.14531726 0.85266674 11184554
0.36507678 -0.14543168 0.85333341 11315883
0.37363482 -0.14563128 0.85450006 11381677
0.38386852 -0.14475808 0.85614288 11512749
0.39470151 -0.14395401 0.85650003 11512749
0.40503606 -0.14403844 0.85700005 11644335
0.41537929 -0.14412206 0.85750008 11578541
0.42540422 -0.14409368 0.85733336 11644078
0.4349606 -0.14391141 0.85625005 11644077
0.4446651 -0.14378594 0.85549998 11643821
0.45475003 -0.14378592 0.85550004 11578028
0.46473399 -0.14360055 0.85680008 11446700
0.47520536 -0.14464453 0.85820007 11512493
0.48468137 -0.14429015 0.8585 11446701
0.49480164 -0.14429015 0.8585 11446444
0.505216 -0.14234777 0.85900003 11380651
0.21798725 -0.13340645 0.85880005 10725287
0.22555907 -0.13414423 0.85833329 10725287
0.23573892 -0.13417895 0.85855567 10790824
0.24584298 -0.13417028 0.8585 10725287
0.25551328 -0.1359548 0.85700005 10791080
0.26484293 -0.13555819 0.85450006 10790822
0.27448747 -0.13534707 0.85316676 10790822
0.28449005 -0.13532023 0.85300004 10921895
0.29448715 -0.13529341 0.85283333 10987175
0.30433246 -0.13520066 0.8522501 10987432
0.31428742 -0.13516158 0.85200006 10987431
0.32452258 -0.13524091 0.85250008 11118760
0.33489954 -0.13537312 0.85333341 11053225
0.34522682 -0.13547888 0.85400003 11250348
0.355086 -0.13539837 0.85350007 11315627
0.36536121 -0.13547888 0.85400003 11381676
0.37572309 -0.13558464 0.85466671 11446956
0.38572136 -0.13555938 0.85450006 11446955
0.39494181 -0.13514058 0.85440004 11578541
0.40470558 -0.13597815 0.85460007 11644334
0.41453215 -0.13575709 0.85575008 11578542
0.42474344 -0.13579614 0.85600001 11644079
0.43553382 -0.13523531 0.85500002 11578542
0.44479385 -0.13591376 0.85420007 11578285
0.45516071 -0.1350762 0.85399997 11578028
0.46547914 -0.13607287 0.85519999 11578028
0.47533673 -0.13583641 0.85625005 11512492
0.48557159 -0.13587666 0.85650009 11446957
0.4961029 -0.13599505 0.85725009 11446700
0.50491524 -0.13486846 0.85780001 11446701
0.51129168 -0.13424686 0.85900003 11512494
0.21756941 -0.12408398 0.85874999 10660264
0.22540519 -0.12393948 0.85775006 10725801
0.23554087 -0.12395173 0.85783339 10660008
0.24555585 -0.12390396 0.85750008 10725801
0.25534919 -0.12577115 0.85644442 10791081
0.26484296 -0.12548508 0.85450006 10856360
0.27443463 -0.12526482 0.8530001 10921896
0.28460202 -0.12531297 0.85333341 10921897
0.29485297 -0.12539274 0.85388893 10987688
0.30507702 -0.1254559 0.8543334 10921895
0.31494218 -0.1253764 0.85377783 10987431
0.32483864 -0.12531219 0.85333341 10987431
0.33502981 -0.12536167 0.85366672 11052967
0.34522679 -0.12541164 0.85400003 11184296
0.35529402 -0.12541166 0.85400003 11249834
0.36536121 -0.12541167 0.85400003 11315626
0.37523252 -0.12534796 0.85355562 11381419
0.38504347 -0.12526639 0.8530001 11447212
0.39479089 -0.12516849 0.85233343 11512748
0.40539375 -0.12533824 0.85350007 11578541
0.41424939 -0.1255822 0.85516667 11644077
0.42474344 -0.12570536 0.85600001 11644077
0.43617031 -0.12550956 0.85466671 11578285
0.44555005 -0.12531455 0.85333341 11512748
0.45549208 -0.12528166 0.85311121 11512492
0.46594274 -0.12538953 0.85383338 11446957
0.47418001 -0.1254385 0.85416669 11446701
0.48459679 -0.12552744 0.85477781 11446701
0.49566945 -0.12577879 0.85650009 11512494
0.50422418 -0.12518804 0.8580001 11315372
0.51129168 -0.12614593 0.85900003 11184555
0.22573426 -0.11804501 0.85900003 10725801
0.23655972 -0.11636986 0.85860002 10791594
0.24570018 -0.11588472 0.85800004 10791337
0.25546435 -0.11572676 0.85683328 10856617
0.26484293 -0.115412 0.85450006 10856104
0.27470192 -0.11532155 0.85383338 10856360
0.28490755 -0.11537764 0.85425001 10856617
0.2948451 -0.11604477 0.8562001 10856617
0.30517262 -0.11547825 0.85799998 10856617
0.31546837 -0.11620589 0.85740006 11053225
0.3247923 -0.11526215 0.85640013 10987432
0.33574829 -0.11554588 0.85549998 11052968
0.34583318 -0.11554588 0.85549998 11118760
0.35550046 -0.1154116 0.85450006 11118504
0.36514613 -0.11527693 0.85350001 11184297
0.37491477 -0.11518728 0.85283345 11446956
0.38459286 -0.11507434 0.85200006 11512492
0.39486966 -0.11514147 0.85250014 11512748
0.40563124 -0.11534328 0.85400003 11447468
0.41441163 -0.11554706 0.85549998 11512748
0.42474344 -0.11561459 0.85600001 11643821
0.43591431 -0.11536736 0.85416675 11578028
0.44524565 -0.11517622 0.85275 11578030
0.45489827 -0.11507434 0.85200006 11512237
0.46507889 -0.11510869 0.85225004 11511980
0.47535798 -0.11516517 0.85266668 11315628
0.48602596 -0.11531129 0.85375005 11381164
0.49538127 -0.11561459 0.85600007 11511980
0.50492311 -0.11595225 0.8585 11446700
0.24598655 -0.10994408 0.85900003 10791594
0.25643376 -0.10694323 0.85814285 10725545
0.26504877 -0.10542186 0.85516667 10790824
0.27453685 -0.10588789 0.85487503 10856360
0.28495818 -0.10506507 0.85699999 10922410
0.29346132 -0.10842485 0.85766673 10856617
0.30066776 -0.10994408 0.85900003 10922410
0.32680422 -0.10988009 0.8585 11052968
0.33518869 -0.10660227 0.85820007 10987431
0.34450677 -0.1056729 0.85722226 11052968
0.35570693 -0.10540053 0.85500002 11118760
0.36514613 -0.10521561 0.85350007 11184553
0.37493944 -0.10513976 0.852889 11250090
0.38504505 -0.1051524 0.8530001 11381419
0.39535752 -0.10522088 0.85355562 11446955
0.40594748 -0.10535864 0.85466671 11315626
0.41441166 -0.10546216 0.85549998 11512748
0.42463213 -0.10549694 0.8557778 11512748
0.43577233 -0.10526408 0.85388899 11578284
0.44541445 -0.10438835 0.85142863 11577515
0.4545978 -0.10534856 0.85049999 11512235
0.46421424 -0.10486791 0.8506667 11446443
0.47467735 -0.10496274 0.85144448 11380906
0.48588422 -0.10521562 0.85350007 11380906
0.49518761 -0.10548349 0.8556667 11446444
0.50472707 -0.10579246 0.85816669 11446701
0.51129168 -0.1038684 0.85900003 11446700
0.54774576 -0.10184316 0.85900003 10921638
0.55396765 -0.10503517 0.85860002 10724257
0.26499674 -0.095321529 0.85500002 10724774
0.27041245 -0.095098555 0.85300004 10855847
0.33712187 -0.095767476 0.85900003 10987432
0.3446846 -0.095619619 0.85766673 10987431
0.35570693 -0.095321536 0.85500002 11184296
0.36503977 -0.095127016 0.85325003 11184296
0.37498882 -0.095098555 0.8530001 11249833
0.3853834 -0.095182762 0.85374999 11381162
0.39556286 -0.095210046 0.85400003 11380906
0.40586755 -0.095266968 0.85450006 11380906
0.41416824 -0.095321529 0.85500002 11512747
0.42424724 -0.095321529 0.85500002 11446698
0.43548909 -0.095134936 0.85333341 11446442
0.4463357 -0.094875582 0.85100001 11446442
0.45583445 -0.094764091 0.85000002 11578028
0.46585444 -0.094764091 0.84999996 11512235
0.4765749 -0.094904043 0.85124999 11446442
0.48545787 -0.095071279 0.85275006 11446443
0.49480134 -0.095322713 0.85500002 11315115
0.50433493 -0.095600247 0.85750008 11315115
0.51264185 -0.095092393 0.85900003 11315371
0.53761959 -0.093742244 0.85900003 11183783
0.54572058 -0.095767476 0.85900003 10790308
0.55333734 -0.095683269 0.85825002 10593186
0.32741547 -0.082877696 0.85833335 10987433
0.33577985 -0.08492846 0.856875 10987432
0.34505287 -0.085893735 0.85571426 11052967
0.35515323 -0.0851117 0.85366672 11118760
0.36450556 -0.08494658 0.85200006 11118759
0.37440318 -0.084912814 0.85166675 11184038
0.38459286 -0.08494658 0.85200006 11315624
0.39463648 -0.084946573 0.85200006 11315625
0.40475965 -0.084963977 0.85216671 11381162
0.41510287 -0.085025169 0.85277778 11446955
0.42543289 -0.085078724 0.85333341 11446699
0.43549043 -0.08507742 0.85333341 11512233
0.44485387 -0.084941864 0.85200006 11446696
0.45424414 -0.084820002 0.85077775 11512233
0.46548986 -0.085268788 0.85024995 11446440
0.47565481 -0.084284052 0.85114282 11380650
0.48531494 -0.08499328 0.85250002 11380393
0.49422225 -0.085144401 0.85400003 11446443
0.50335473 -0.085327186 0.85583335 11315371
0.51467711 -0.085532643 0.85788888 11315371
0.52506047 -0.085576437 0.85833341 11249836
0.53524852 -0.085587509 0.85844451 11118248
0.54572052 -0.085641325 0.85900003 10724259
0.55314636 -0.088341631 0.85900003 10658978
0.30876866 -0.073489949 0.85900003 11053226
0.3161287 -0.073318847 0.85700005 10921640
0.3247138 -0.075675972 0.85620004 10987432
0.33509263 -0.075062156 0.85383338 10987174
0.34492302 -0.075010285 0.85325003 10987174
0.35425082 -0.074857034 0.85150003 11118503
0.36465192 -0.075725995 0.85000002 11249575
0.37767801 -0.076728001 0.85000002 11249829
0.38649565 -0.075124785 0.85000002 11315623
0.39582989 -0.074746557 0.85025001 11315622
0.40473214 -0.075725995 0.85000002 11381671
0.4157542 -0.076728001 0.85000002 11184551
0.42477059 -0.075452171 0.8506667 11315624
0.43472752 -0.074886337 0.85183334 11381160
0.44537675 -0.074987724 0.85300004 11380904
0.45516524 -0.074942581 0.85250002 11315368
0.46480489 -0.074877247 0.85175002 11446442
0.47517213 -0.074928336 0.85233337 11315113
0.48545671 -0.074965149 0.85275 11380649
0.49407738 -0.075053059 0.85375005 11446955
0.50527447 -0.075222157 0.8556667 11381164
0.51586163 -0.075296588 0.85650009 11446957
0.5242449 -0.075339362 0.85700005 11315371
0.53476459 -0.075397976 0.85766667 11183785
0.54369533 -0.075515181 0.85900003 10986661
0.296523 -0.062769331 0.85640013 10724260
0.30508333 -0.065046996 0.854375 10921639
0.31483275 -0.065373771 0.85212505 10921895
0.32502848 -0.064253673 0.85157144 10856101
0.33507368 -0.065398186 0.85250014 10855844
0.34461927 -0.064894237 0.85250014 11052966
0.35404277 -0.064780056 0.85100001 10987173
0.36164591 -0.060695913 0.85000002 11052967
0.37767801 -0.060695913 0.85000002 10987174
0.38643765 -0.06471584 0.85016674 11118503
0.39531976 -0.064204112 0.85100001 11118760
0.40342388 -0.063916609 0.8502 11118758
0.42978227 -0.068711959 0.85000002 11314856
0.43630859 -0.064780839 0.85100007 11315367
0.44520351 -0.064906143 0.85266668 11315366
0.45578808 -0.064981475 0.85366672 11381160
0.4658514 -0.064981475 0.85366672 11315110
0.47399494 -0.064993374 0.85383344 11446696
0.48446974 -0.065049134 0.85455561 11380905
0.49480096 -0.065082975 0.85500002 11446443
0.50540471 -0.065151684 0.8558889 11380907
0.51525897 -0.065124176 0.85549998 11315370
0.52491766 -0.064628765 0.85562503 11249321
0.53586036 -0.065858252 0.85757148 10987175
0.54369533 -0.06538903 0.85900003 10855589
0.17392556 -0.054744393 0.85720003 10002591
0.18447378 -0.053020738 0.85550004 10134434
0.28514382 -0.054187112 0.85800004 10526880
0.2951155 -0.054984886 0.85466677 10592930
0.30494484 -0.055123754 0.85059994 10855846
0.325703 -0.054705322 0.85033339 10856101
0.33638343 -0.054812543 0.85200006 10855845
0.34451881 -0.054829217 0.85225004 10987431
0.35418305 -0.054769654 0.85133338 10987431
0.3656539 -0.054683879 0.84999996 10987174
0.37589499 -0.054714862 0.85050005 10987431
0.3844806 -0.054795869 0.85175002 10987174
0.39486805 -0.054843534 0.85250014 11052967
0.40569156 -0.05518667 0.85160005 11118760
0.41198722 -0.052710854 0.85049999 11249576
0.42978227 -0.054683879 0.85000002 11249319
0.43656456 -0.054780375 0.85150003 11183270
0.44563901 -0.054909043 0.85350001 11118245
0.45408615 -0.054956704 0.85425007 11249574
0.46456322 -0.055005547 0.85500002 11249319
0.47464219 -0.055005547 0.85500002 11183783
0.48509994 -0.05504765 0.85566664 11249062
0.49537891 -0.055069882 0.85600007 11249576
0.50546974 -0.055069882 0.85600001 11249577
0.51495814 -0.055005547 0.85500002 11183785
0.52524346 -0.055026989 0.85533333 11249321
0.53668201 -0.055166382 0.85750008 10921125
0.54369533 -0.055262879 0.85900003 10592673
0.1670026 -0.045136731 0.85900003 9739419
0.17471586 -0.04503591 0.8571111 9871005
0.18461831 -0.044985499 0.85616666 10068384
0.19469935 -0.044981271 0.85611117 10134435
0.20492828 -0.045732874 0.85500002 10200228
0.21258831 -0.048958149 0.85500002 10266535
0.27636498 -0.045136735 0.85900003 10264478
0.28394711 -0.045053951 0.85744447 10395294
0.29480988 -0.044861808 0.85377783 10526880
0.30581164 -0.044703119 0.85077775 10658465
0.31610298 -0.043881349 0.85040009 10724257
0.3253127 -0.045197073 0.85062498 10725028
0.3355225 -0.044194996 0.85200012 10790565
0.34441838 -0.044768918 0.85200006 10856359
0.35413733 -0.044728044 0.85122222 10922151
0.36393514 -0.044697281 0.8506667 10856359
0.37450197 -0.04476098 0.8518889 10921895
0.38511989 -0.044827864 0.85316676 10921638
0.39545992 -0.044861283 0.85377783 10986917
0.40499592 -0.044803157 0.8526668 10986917
0.41401851 -0.044691965 0.85055554 10987174
0.42377022 -0.044663828 0.84999996 11052452
0.43470016 -0.044758286 0.85177779 11117732
0.44572559 -0.044857278 0.85366672 11117988
0.45404163 -0.044883549 0.85416669 11249318
0.46456322 -0.044926554 0.85500002 11183270
0.4751052 -0.044969555 0.85583335 11183270
0.48541465 -0.044989727 0.85622221 11117734
0.49557182 -0.044995043 0.85633343 11117990
0.50525922 -0.045508731 0.85650003 11183270
0.51486629 -0.044414796 0.85628569 11117735
0.52514672 -0.045481279 0.85600001 11052199
0.53586036 -0.04448371 0.85757142 10789796
0.54369533 -0.045136731 0.85900003 10657696
0.17712875 -0.037035815 0.85900003 10002591
0.18512303 -0.037014261 0.8585 10134177
0.19130535 -0.037035815 0.85900003 10068386
0.28632319 -0.037014261 0.8585 10263708
0.29580769 -0.034912344 0.85666662 10395294
0.30504668 -0.034814045 0.85425007 10461341
0.31484076 -0.034782887 0.85350007 10592669
0.32509241 -0.034804441 0.85400009 10592670
0.33535585 -0.034823641 0.85450011 10592671
0.34542894 -0.034823641 0.85450006 10724259
0.3551546 -0.034790073 0.85366678 10789795
0.36525482 -0.034793664 0.85375005 10724002
0.37479892 -0.035223901 0.85440004 10723489
0.38536718 -0.034498159 0.85640001 10854561
0.39481613 -0.034915935 0.85675007 10920354
0.40408611 -0.034845199 0.85500002 10920609
0.41480252 -0.03473011 0.85216671 10920610
0.42439404 -0.034692947 0.85125005 10920611
0.43489763 -0.0347309 0.85216671 10986404
0.44590008 -0.034805622 0.85400003 11051941
0.45435193 -0.034835599 0.85475004 10986147
0.46510816 -0.034886744 0.85600001 11051684
0.47589186 -0.034937494 0.85725003 11051684
0.48527271 -0.035348535 0.85740006 10920612
0.49509114 -0.034548007 0.85760003 10986405
0.50477546 -0.034979429 0.85825002 11117479
0.51504213 -0.034989025 0.8585 10986406
0.52516246 -0.034989029 0.85850006 10986663
0.53453588 -0.035398386 0.85860002 10724004
0.30876866 -0.028934896 0.85900003 11316396
0.31484437 -0.028934896 0.85900003 11251371
0.32497051 -0.028934896 0.85900003 11316907
0.35737419 -0.028934896 0.85900003 11645357
0.36533329 -0.028923668 0.85866666 11513771
0.37560123 -0.028934896 0.85900003 11381932
0.40955284 -0.028901212 0.85800004 11315622
0.41489369 -0.028850686 0.85650003 11249829
0.42441106 -0.028811388 0.85533333 11183782
0.4345814 -0.028817002 0.85550004 11315622
0.44509983 -0.028845072 0.85633343 11249316
0.4558143 -0.02888437 0.85750008 11183523
0.46444207 -0.028918054 0.8585 11183523
0.47078705 -0.028934896 0.85900003 11117477
0.55363536 0.0061574164 0.85766667 9868435
0.30674344 0.019670619 0.85900003 10329501
0.31484437 0.019670619 0.85900003 10461087
0.53901666 0.019647719 0.85800004 11513001
0.54569501 0.016048426 0.85499996 10394781
0.5515328 0.015494217 0.85233337 10197911
0.23991087 0.027771536 0.85900003 10067099
0.24570018 0.027739208 0.85800004 10198428
0.25566548 0.026710428 0.85750008 10001306
0.26477575 0.025315398 0.85820007 9869463
0.27497581 0.026093161 0.85720003 10000536
0.28454369 0.025272965 0.85680008 9868950
0.29529205 0.025627876 0.85516667 10000532
0.30477941 0.025577923 0.85350001 9934739
0.31515053 0.025603294 0.85433334 10000275
0.32575917 0.025645953 0.85575008 10065813
0.33513629 0.026057193 0.85600007 10131862
0.345388 0.025291419 0.85740006 10197400
0.35472965 0.027723044 0.85750008 10790052
0.36142465 0.027771536 0.85900003 10659236
0.39562196 0.027755372 0.8585 10460317
0.40471783 0.027685324 0.85633343 10525596
0.41416824 0.027642217 0.85500002 10196375
0.42457959 0.027663773 0.8556667 10064789
0.43508938 0.027690712 0.85650003 9867410
0.44544479 0.027706878 0.85700005 9735824
0.45528042 0.027690712 0.85650003 9735822
0.46510658 0.027674548 0.85600013 9801100
0.47547609 0.027690712 0.85650003 9736080
0.48468256 0.027755372 0.8585 9867153
0.49103937 0.027771536 0.85900003 9933203
0.53502715 0.026084 0.85680008 10263194
0.54380888 0.025560299 0.85283333 10066068
0.55034649 0.02549272 0.85049999 10132118
0.13646275 0.039876439 0.85800004 6446672
0.1443454 0.037795473 0.85675001 8948341
0.15391338 0.036939472 0.85699999 9474691
0.16488133 0.037874449 0.85850006 9869967
0.17500158 0.037874449 0.85850006 10001557
0.18512185 0.037874449 0.8585 10132890
0.19535582 0.039922915 0.85900003 10264478
0.20345673 0.039922915 0.85900003 10330271
0.21763334 0.039922915 0.85900003 10264478
0.2260574 0.038510796 0.85766667 10132892
0.23503354 0.03574089 0.85600001 10198172
0.2444585 0.035644233 0.85366672 10198428
0.25442317 0.035631102 0.85333341 10329501
0.26458505 0.035645805 0.85366672 10263451
0.27436206 0.035608947 0.85277784 10329499
0.28549334 0.036057897 0.85150003 10461084
0.2938537 0.03252764 0.85100007 10395036
0.30553362 0.03148859 0.85000008 10526621
0.31646916 0.032849293 0.8506667 10461083
0.32601982 0.0348734 0.85116673 10526876
0.3354651 0.03499553 0.85185719 10592669
0.34448609 0.035581592 0.85216671 10658463
0.35463643 0.036146052 0.853625 10855843
0.36529046 0.035159204 0.85585725 10790051
0.37502748 0.036305126 0.85571432 10789539
0.38465676 0.035216451 0.85549998 10724001
0.39447993 0.0351022 0.85275 10723488
0.40385297 0.032886341 0.85166675 10723232
0.41472375 0.031562679 0.85200006 10788768
0.42439401 0.033538908 0.85125005 10788253
0.43531135 0.034422282 0.85185713 10656926
0.44511569 0.033587571 0.85250002 10656670
0.45489827 0.033569049 0.85200006 10656670
0.46457806 0.035547577 0.85133332 10590874
0.47483176 0.036104288 0.85262513 10525082
0.4856301 0.035106186 0.85457146 10459545
0.49509075 0.035720009 0.85550004 10591387
0.5048902 0.036240011 0.85587502 10459801
0.51546693 0.035216842 0.8572858 10394265
0.52506769 0.036241777 0.85587496 10328471
0.53569365 0.035258606 0.85400009 10197656
0.54529095 0.035580132 0.85200006 10329242
0.55110145 0.035567787 0.85166669 10131603
0.1260895 0.04685748 0.85625005 9539452
0.13461517 0.045323454 0.85399997 9275765
0.14552024 0.045208007 0.85179996 9539708
0.1557368 0.04566098 0.85275006 9934987
0.16440237 0.045836784 0.85600007 10066833
0.17466186 0.045881405 0.8568334 10133143
0.18469058 0.045863558 0.85650003 10199195
0.19482595 0.045872089 0.85666674 10264733
0.20500353 0.045889154 0.85699999 10330526
0.2149372 0.045853451 0.85633343 10264476
0.22546461 0.046098117 0.85340005 10264220
0.23457336 0.045188475 0.85140002 10198684
0.24560654 0.045551579 0.8506667 10198683
0.25588411 0.04559581 0.85150003 10395293
0.26508713 0.045991965 0.85140002 10395293
0.27465713 0.045179177 0.85119998 10395547
0.28560388 0.04553451 0.85033339 10461340
0.34761786 0.043512654 0.85000002 10854818
0.35584307 0.045542255 0.85049999 10920609
0.36439919 0.045608606 0.85175002 10920609
0.37447515 0.045612872 0.85183334 10789023
0.38503003 0.044553053 0.85075009 10723232
0.46986249 0.043512654 0.85000002 10063757
0.47587454 0.043512654 0.85000002 9998477
0.48532072 0.045937937 0.85039997 8814205
0.4956429 0.045199655 0.85160005 9407370
0.50496876 0.045608606 0.85175002 9472907
0.5154624 0.045649361 0.85250014 9801870
0.52551198 0.045649357 0.85250008 10196116
0.53545594 0.045640826 0.85233337 10196369
0.54529095 0.045623764 0.85200006 10329238
0.55196422 0.045677312 0.85300004 10329237
0.11734036 0.055625405 0.85133338 9475722
0.12435117 0.052606478 0.85125005 9407869
0.16644423 0.054860126 0.85200006 10264212
0.17514612 0.055189405 0.85357147 10133143
0.1854969 0.056247711 0.85325009 10264475
0.19517095 0.055162754 0.85314286 10330269
0.20540285 0.056189951 0.85237503 10330270
0.21496041 0.055078749 0.85185719 10264478
0.22472878 0.053168278 0.85060006 10329757
0.23338923 0.051528696 0.85000002 10198685
0.2474173 0.051528696 0.85000002 10263965
0.25610134 0.052864704 0.85000008 10264222
0.26560956 0.053563017 0.85050005 10329501
0.27563551 0.053563017 0.85049999 10395292
0.28492096 0.054391567 0.84999996 10461084
0.36565396 0.051528696 0.85000008 10855071
0.37366998 0.051528696 0.85000002 10722972
0.49791867 0.051528696 0.85000002 9078660
0.50673634 0.054735113 0.85000002 7235431
0.51535505 0.054990124 0.85042858 9670801
0.52448493 0.055590376 0.85083336 10130582
0.53489983 0.055630572 0.85144448 10065302
0.54529101 0.055667397 0.85200006 10197655
0.55196422 0.055732731 0.85299999 10132118
0.11485062 0.063941762 0.85525006 9540747
0.17727692 0.06355276 0.85000002 10461340
0.18529296 0.06355276 0.85000008 10395547
0.19531302 0.06355276 0.85000002 10395547
0.20533307 0.06355276 0.85000008 10264731
0.51595473 0.065556772 0.85000002 9605524
0.52443373 0.065615207 0.85075003 10065304
0.53503942 0.065685324 0.85166675 9933974
0.54529095 0.065711029 0.85200006 10262937
0.55164069 0.065748408 0.85250008 10198167
0.10965417 0.07995937 0.85400003 9014914
0.11175801 0.073981009 0.8547501 9277830
0.51695675 0.074574828 0.85000002 9605266
0.52438259 0.075635314 0.8506667 9999767
0.53510875 0.075734384 0.85177785 9934230
0.54529095 0.075754665 0.85200006 10066072
0.55196422 0.075843573 0.85299999 10066582
0.10769667 0.086048864 0.8545 9014658
0.52597481 0.085596882 0.85000002 10130839
0.53554815 0.08531598 0.85119998 9999509
0.54529095 0.085798293 0.85200006 10000536
0.55196422 0.085898995 0.85300004 10263708
0.10587465 0.094273731 0.85600007 8883330
0.52998281 0.091608912 0.85000002 9933205
0.53666288 0.09294492 0.85000008 9933973
0.54443836 0.095689572 0.8506667 10131865
0.55110145 0.095802851 0.85166669 10000536
0.10476927 0.10528333 0.85525 8685181
0.5460149 0.10563699 0.85000002 10066325
0.55067003 0.10576127 0.85100001 10066325
0.10391097 0.11528237 0.85320008 8290679
0.5460149 0.11365303 0.85000002 10000536
0.55067003 0.11579311 0.85100001 10132119
0.10183833 0.12454608 0.85600013 8422010
0.55002296 0.12367308 0.85000002 10065807
0.10381486 0.13527302 0.8524 7961458
0.10320455 0.14519298 0.85400009 7830642
0.10488385 0.15576904 0.85460007 7632750
0.10639364 0.16467975 0.85483342 7566445
0.10659921 0.17528239 0.85539997 7435630
0.11314857 0.17577738 0.85000008 7435116
0.10576902 0.18492052 0.85522228 7829618
0.11314857 0.18379341 0.85000002 7698032
0.098087654 0.19575043 0.8585 8224377
0.10608643 0.19538829 0.8531428 8027254
0.095074072 0.2056129 0.85742861 7895411
0.10493308 0.20493285 0.85250008 8093561
0.089886636 0.21573934 0.85750008 7105122
0.094612077 0.21424815 0.85640013 7829618
0.10589475 0.21510747 0.8515715 8355965
0.088174 0.22480185 0.85660011 6973792
0.095652133 0.22514506 0.85483336 8223862
0.10485815 0.22486848 0.85187507 8488063
0.087385811 0.23455112 0.85680008 7105122
0.095614836 0.23513196 0.85450006 8289912
0.10587776 0.23514567 0.85142863 8750979
0.088132069 0.2448837 0.85620004 7105379
0.09557832 0.2451086 0.85416675 8421497
0.10482723 0.24488045 0.85162503 8948102
0.087263793 0.25439209 0.85560006 7104865
0.095475554 0.25490412 0.85325003 8421498
0.10572395 0.25566086 0.85075003 9079687
0.087903336 0.26438594 0.85399997 7170401
0.095260888 0.26436552 0.85133338 8487034
0.10218599 0.26410794 0.85049999 9079430
0.087464295 0.27514711 0.85366672 7236450
0.094110474 0.2749759 0.85000002 8486776
0.087446809 0.28515509 0.85350007 7235936
0.093108468 0.28599799 0.85000002 8420470
0.087137058 0.29432416 0.85440004 7039070
0.093108468 0.29401404 0.85000002 8355702
0.08784043 0.30444199 0.85340005 7301729
0.093108468 0.30403402 0.85000008 8486263
0.087139882 0.31446609 0.85440004 7235934
0.093108468 0.31405413 0.85000002 8486518
-0.63461041 -0.3529892 0.86400002 8491637
-0.62573737 -0.35258064 0.86299998 8491640
-0.61556405 -0.35258064 0.86300004 8556921
-0.60539073 -0.35258064 0.86299998 8360311
-0.59521741 -0.35258064 0.86300004 8294263
-0.58504409 -0.35258064 0.86299998 8425081
-0.57487077 -0.35258064 0.86300004 8162425
-0.56876683 -0.35258064 0.86300004 8162426
0.38612023 -0.35298315 0.86900002 11579061
0.39401141 -0.35271236 0.86833334 11710131
0.40455949 -0.35298315 0.86900002 11775924
0.41070589 -0.35298315 0.86900002 11972790
-0.63461041 -0.34484112 0.86400002 8622452
-0.62573725 -0.34444198 0.86299998 8622969
-0.61556405 -0.34444201 0.86300004 8490871
-0.60539073 -0.34444198 0.86299998 8228471
-0.59521741 -0.34444198 0.86300004 8294007
-0.58504409 -0.34444201 0.86299998 8162680
-0.57487077 -0.34444198 0.86300004 8227961
-0.5646975 -0.34444198 0.86299998 8227962
-0.55452418 -0.34444198 0.86300004 8162170
-0.54435092 -0.34444198 0.86299998 8096633
-0.5341776 -0.34444198 0.86300004 7833720
-0.52603894 -0.34444201 0.86300004 8030842
-0.51586562 -0.34444198 0.86299998 7965049
-0.50772703 -0.34647664 0.86300004 8030072
0.37792498 -0.34069031 0.86900002 11775924
0.38592845 -0.34344846 0.8685714 11775924
0.39509529 -0.3450332 0.8681429 11776180
0.40417191 -0.34445807 0.86816669 11907254
0.41464439 -0.34465721 0.86866665 11841973
0.42480299 -0.3425431 0.86849999 11841716
0.4350411 -0.3425431 0.86849999 11841974
0.44348678 -0.34069031 0.86900002 11842485
-0.63461041 -0.33465603 0.86400002 8425847
-0.62573731 -0.33426869 0.86299998 8425847
-0.61556405 -0.33426869 0.86299998 8359798
-0.60539073 -0.33426872 0.86299998 8228470
-0.59521741 -0.33426872 0.86299998 8031608
-0.58504409 -0.33426875 0.86299998 8227961
-0.57487077 -0.33426869 0.86299998 8096377
-0.5646975 -0.33426875 0.86299998 8096632
-0.55452418 -0.33426872 0.86299998 8096632
-0.54435092 -0.33426872 0.86299998 8030841
-0.5341776 -0.33426872 0.86299998 8096379
-0.52603894 -0.33426869 0.86299998 7965307
-0.51702827 -0.33485004 0.86299998 7964536
0.32875365 -0.33249509 0.86900002 11644338
0.33470738 -0.33435258 0.86849999 11644338
0.34424609 -0.3340576 0.86879998 11775924
0.37655911 -0.33386096 0.86900002 11841461
0.38567436 -0.3341597 0.86800003 11841717
0.39568007 -0.33396763 0.86750007 11841717
0.40504107 -0.33352008 0.86740005 11710132
0.4149529 -0.33441517 0.86760008 11841718
0.424191 -0.3338708 0.86725008 11907510
0.434374 -0.33383849 0.8671667 11842231
0.4450241 -0.33416009 0.86800003 11842487
0.45168203 -0.33249509 0.86900002 11974073
-0.63461041 -0.32447094 0.86400002 8294003
-0.62573725 -0.3240954 0.86299998 8425590
-0.61556405 -0.3240954 0.86300004 8294263
-0.60620463 -0.32450232 0.86300004 8228216
-0.59521741 -0.32613006 0.86300004 8162166
-0.58504409 -0.32613006 0.86300009 8227962
-0.57487077 -0.3240954 0.86300004 8161912
-0.5646975 -0.3240954 0.86299998 7965046
-0.55452418 -0.3240954 0.86300004 8030839
-0.54435092 -0.3240954 0.86299998 7899255
-0.5341776 -0.3240954 0.86300004 7964792
-0.52603894 -0.3240954 0.86300004 7833464
-0.51790029 -0.3240954 0.86300004 7898491
0.14436106 -0.32225102 0.86900002 10591637
0.15442719 -0.32392666 0.86800003 11578280
0.16459776 -0.32380226 0.86766672 11907503
0.17509316 -0.32225102 0.86900002 11513519
0.30280209 -0.32293394 0.86900002 11579059
0.31422991 -0.32411325 0.86849999 11644338
0.32434312 -0.32603687 0.86816669 11775924
0.33422509 -0.32569203 0.86725008 11710131
0.34468231 -0.32591167 0.86783338 11841460
0.35456967 -0.32554132 0.86866665 11906997
0.36655018 -0.32523096 0.86874998 11775668
0.37544245 -0.32597429 0.86800003 11775924
0.38522997 -0.32559836 0.86700004 11841717
0.39522398 -0.32541099 0.86650002 11775924
0.40543857 -0.32541099 0.86650008 11907510
0.41565311 -0.32541099 0.86650002 11907767
0.4256219 -0.32522205 0.86600012 11842230
0.43583059 -0.32522205 0.86600006 12039096
0.44476774 -0.32578534 0.86750007 11908280
0.451682 -0.32429984 0.86900002 11973817
-0.63461041 -0.31428584 0.86400002 8359798
-0.62573737 -0.31595674 0.86299998 8228213
-0.61556405 -0.31595674 0.86300004 8162678
-0.60742539 -0.31799141 0.86300004 8096630
-0.57419252 -0.31663498 0.86300009 8030839
-0.5646975 -0.31595674 0.86299998 7965048
-0.55452418 -0.31595674 0.86300004 7899512
-0.54435092 -0.31595674 0.86299998 8095865
-0.5341776 -0.31595674 0.86300004 8030073
-0.52603894 -0.31595674 0.86300004 8030329
-0.51586562 -0.31595674 0.86299998 7964282
0.1378942 -0.31128895 0.86700004 9868945
0.14505044 -0.31506938 0.86614293 10986919
0.15508008 -0.31621024 0.8648001 11842228
0.16525638 -0.31523433 0.86500013 11974071
0.17436291 -0.31470591 0.86740005 11710901
0.29759228 -0.31360584 0.86775005 11513522
0.30562869 -0.31550071 0.86733335 11579059
0.31556958 -0.31521758 0.86655569 11644851
0.32557699 -0.31501654 0.866 11644595
0.3356564 -0.31489369 0.86566675 11644595
0.3459281 -0.31495512 0.86583346 11710132
0.3543669 -0.31519839 0.86650014 11710131
0.36474335 -0.31533936 0.866889 11841460
0.37472275 -0.31513619 0.86633343 11775668
0.38453987 -0.31481284 0.86544454 11841717
0.39446342 -0.31458977 0.86483341 11907511
0.40478972 -0.3146916 0.86511123 11907511
0.41493356 -0.31464961 0.86500007 11907767
0.42518556 -0.31469056 0.86511123 11973560
0.43591484 -0.31507319 0.86616677 11973560
0.44476771 -0.315559 0.86750007 11973561
0.45168203 -0.31405583 0.86900002 11973818
-0.63461041 -0.30410075 0.86400002 7965554
-0.62573725 -0.30578348 0.86299998 8162422
-0.61556405 -0.30578348 0.86299998 8096628
-0.60539073 -0.30171415 0.86300009 8096632
-0.59521741 -0.30171415 0.86300004 8030838
-0.58504409 -0.30171415 0.86300009 7899511
-0.57385343 -0.30476612 0.86300004 7964791
-0.5646975 -0.30578348 0.86299998 7899255
-0.55452418 -0.30578348 0.86299998 7899256
-0.54435092 -0.30578348 0.86299998 7964537
-0.5341776 -0.30578348 0.86299998 7964538
-0.52603894 -0.30578348 0.86299998 8030075
-0.51637429 -0.30527481 0.86299998 8029562
-0.50772703 -0.30374879 0.86300004 8029819
0.13769479 -0.3047173 0.86575007 9868689
