# .PCD v0.7 - Point Cloud Data file format
VERSION 0.7
FIELDS x y z rgb
SIZE 4 4 4 4
TYPE F F F U
COUNT 1 1 1 1
WIDTH 1148
HEIGHT 1
VIEWPOINT 0 0 0 1 0 0 0
POINTS 1148
DATA ascii
-0.29421315 -0.31270701 1.6520001 1516327
-0.28677019 -0.31308559 1.654 1845292
-0.27863374 -0.31270701 1.6520001 1584687
-0.26986033 -0.31157124 1.646 2371373
-0.26098427 -0.31024623 1.6390001 1974562
-0.2520197 -0.30873191 1.631 1514781
-0.24313061 -0.30721757 1.623 1514781
-0.23460712 -0.30608186 1.6170001 1975332
-0.22628058 -0.3051354 1.6120001 1909537
-0.21813686 -0.30437824 1.608 2238502
-0.21016179 -0.30381036 1.605 1909537
-0.20234126 -0.30343178 1.603 2304295
-0.19453958 -0.3030532 1.6010001 1975330
-0.18675676 -0.30267462 1.5990001 2370088
-0.17921697 -0.30267462 1.5990001 5659738
-0.17167717 -0.30267462 1.5990001 8357251
-0.16434267 -0.3030532 1.6010001 7632760
-0.15698931 -0.30343178 1.603 6121576
-0.14961709 -0.30381036 1.605 6648179
-0.14240302 -0.30456755 1.6090001 6383724
-0.13515122 -0.30532467 1.613 3948870
-0.12786171 -0.30608186 1.6170001 5724763
-0.12053447 -0.30683902 1.6210001 6647138
-0.11316951 -0.30759618 1.6250001 7829347
-0.10570189 -0.30816403 1.628 8091234
-0.098205991 -0.30873191 1.631 7564890
-0.090626299 -0.30911049 1.6330001 8223592
-0.08297696 -0.30929977 1.6340001 8354406
-0.075272128 -0.30929977 1.6340001 7761754
-0.067567296 -0.30929977 1.6340001 8420201
-0.059862465 -0.30929977 1.6340001 8091236
-0.052125711 -0.30911049 1.6330001 8420199
-0.044425599 -0.30911049 1.6330001 7498584
-0.03672548 -0.30911049 1.6330001 7696476
-0.029043136 -0.30929977 1.6340001 8354408
-0.021338305 -0.30929977 1.6340001 8025443
-0.013641816 -0.30948907 1.6350001 7960420
-0.0059358957 -0.30967835 1.636 7698025
0.0017794544 -0.30986765 1.6370001 7566439
0.0095042353 -0.31005695 1.6380001 4738636
0.017248964 -0.31043553 1.6400001 4148297
0.025012555 -0.31081411 1.6420001 5727067
0.032814957 -0.31138197 1.6450001 5858651
0.040645648 -0.31194985 1.6480001 5134158
0.048504628 -0.3125177 1.651 5528405
0.056426004 -0.31327486 1.6550001 5066831
0.064229853 -0.31327486 1.6550001 5001808
0.071685508 -0.31176054 1.6470001 2500904
0.0794034 -0.31157124 1.646 2106916
0.087164812 -0.31157124 1.646 2106916
0.094926231 -0.31157124 1.646 1975330
0.098882087 -0.30002457 1.585 1909790
0.10635587 -0.30002457 1.585 1909790
0.079932123 -0.21067971 1.113 1843744
0.085180268 -0.21067971 1.113 2698283
0.090428419 -0.21067971 1.113 4146752
0.095676571 -0.21067971 1.113 4673609
0.10092472 -0.21067971 1.113 5331539
0.10617287 -0.21067971 1.113 5594711
0.11142102 -0.21067971 1.113 5989469
0.11666917 -0.21067971 1.113 6778472
0.097599581 -0.16865735 0.89100003 7041644
0.10157242 -0.16827877 0.88900006 7370609
0.10564537 -0.16808948 0.88800007 8291458
0.10958521 -0.1677109 0.88600004 8949388
0.11337778 -0.16714302 0.88300002 9212560
0.11727517 -0.16676445 0.88100004 8949388
0.12101587 -0.16619657 0.87800002 8817802
0.12487084 -0.16581801 0.87600005 8423044
0.12870693 -0.16543941 0.87400001 8423557
0.13267614 -0.16525012 0.87300003 8555143
0.13663593 -0.16506083 0.87200004 8686729
0.14074768 -0.16506083 0.87200004 8817802
0.14485943 -0.16506083 0.87200004 8883595
0.1489712 -0.16506083 0.87200004 9146767
0.15308295 -0.16506083 0.87200004 9607318
0.15719472 -0.16506083 0.87200004 9870490
0.16130647 -0.16506083 0.87200004 10133664
0.16522853 -0.16487154 0.87100005 10199457
0.16933559 -0.16487154 0.87100005 10331043
0.17324351 -0.16468227 0.87000006 10265250
0.17734581 -0.16468227 0.87000006 10331043
0.18123958 -0.16449296 0.86900002 10265250
0.18512392 -0.16430368 0.86800003 10265250
0.18899883 -0.16411439 0.86700004 10528422
0.19308701 -0.16411439 0.86700004 10396836
0.19694777 -0.1639251 0.86600006 10528422
0.20079911 -0.16373581 0.86500007 10396836
0.20487787 -0.16373581 0.86500007 10725031
0.20871502 -0.16354652 0.86400002 10659238
0.21278907 -0.16354652 0.86400002 10725031
0.2166121 -0.16335723 0.86300004 10725031
0.22068143 -0.16335723 0.86300004 10922410
0.22449031 -0.16316794 0.86200005 10790824
0.22855493 -0.16316794 0.86200005 10856617
0.23234968 -0.16297865 0.86100006 10790824
0.23640957 -0.16297865 0.86100006 10790824
0.24019016 -0.16278936 0.86000001 10856617
0.24424532 -0.16278936 0.86000001 10790824
0.24801178 -0.16260007 0.85900003 10856617
0.25206223 -0.16260007 0.85900003 10922410
0.25581455 -0.16241078 0.85800004 10856617
0.25986031 -0.16241078 0.85800004 10856617
0.26359847 -0.16222149 0.85700005 10987433
0.26763952 -0.16222149 0.85700005 10987433
0.2713635 -0.1620322 0.85600007 11053226
0.27539983 -0.1620322 0.85600007 11053224
0.27943614 -0.1620322 0.85600007 10856615
0.28347245 -0.1620322 0.85600007 10856617
0.28717288 -0.1618429 0.85500002 10856617
0.29120448 -0.1618429 0.85500002 11250605
0.29523608 -0.1618429 0.85500002 11053226
0.29926768 -0.1618429 0.85500002 10987433
0.30365402 -0.1620322 0.85600007 11053226
0.30769032 -0.1620322 0.85600007 10987433
0.31172666 -0.1620322 0.85600007 11119019
0.31576297 -0.1620322 0.85600007 11053226
0.31979927 -0.1620322 0.85600007 10987433
0.32383561 -0.1620322 0.85600007 10987433
0.32787192 -0.1620322 0.85600007 11250605
0.33152047 -0.1618429 0.85500002 11118762
0.33555204 -0.1618429 0.85500002 11184555
0.33918649 -0.16165362 0.85400003 11118762
0.34321338 -0.16165362 0.85400003 11316141
0.34683365 -0.16146433 0.85300004 11316141
0.35085583 -0.16146433 0.85300004 11184555
0.35446197 -0.16127504 0.85200006 11315371
0.35847941 -0.16127504 0.85200006 11316141
0.36249685 -0.16127504 0.85200006 11118762
0.3665143 -0.16127504 0.85200006 11381934
0.37096664 -0.16146433 0.85300004 11447727
0.37542844 -0.16165362 0.85400003 11316139
0.37989965 -0.1618429 0.85500002 11512748
0.38438031 -0.1620322 0.85600007 11512750
0.38841662 -0.1620322 0.85600007 11512748
0.3929114 -0.16222149 0.85700005 11578543
0.39741561 -0.16241078 0.85800004 11578543
0.40146133 -0.16241078 0.85800004 11710127
0.40597969 -0.16260007 0.85900003 11644334
0.41003016 -0.16260007 0.85900003 11644336
0.41408062 -0.16260007 0.85900003 11710129
0.41813108 -0.16260007 0.85900003 11841202
0.42218155 -0.16260007 0.85900003 11710129
0.42623198 -0.16260007 0.85900003 11907508
0.43028244 -0.16260007 0.85900003 11775922
0.43433291 -0.16260007 0.85900003 11907508
0.43838337 -0.16260007 0.85900003 11710129
0.44243383 -0.16260007 0.85900003 11512750
0.4464843 -0.16260007 0.85900003 11578543
0.45053476 -0.16260007 0.85900003 11710129
0.45458522 -0.16260007 0.85900003 11644336
0.4591696 -0.16278936 0.86000001 11578543
0.4632248 -0.16278936 0.86000001 11578543
0.46727997 -0.16278936 0.86000001 11512750
0.47133508 -0.16278936 0.86000001 11578543
0.47539029 -0.16278936 0.86000001 11578543
0.47944546 -0.16278936 0.86000001 11578543
0.48350063 -0.16278936 0.86000001 11643823
0.4875558 -0.16278936 0.86000001 11578030
0.49218264 -0.16297865 0.86100006 11578032
0.4968189 -0.16316794 0.86200005 11643825
0.50088352 -0.16316794 0.86200005 11643825
0.50553387 -0.16335723 0.86300004 11644336
0.51019371 -0.16354652 0.86400002 11512750
0.51486301 -0.16373581 0.86500007 11512750
0.51894176 -0.16373581 0.86500007 11578543
0.52302051 -0.16373581 0.86500007 11184555
0.52770859 -0.1639251 0.86600006 11447727
0.5317921 -0.1639251 0.86600006 11381934
0.53587556 -0.1639251 0.86600006 11119019
0.54058248 -0.16411439 0.86700004 11250605
0.54467064 -0.16411439 0.86700004 11119017
0.54875886 -0.16411439 0.86700004 10988201
0.55348468 -0.16430368 0.86800003 10791592
0.55757761 -0.16430368 0.86800003 10660006
0.56231755 -0.16449296 0.86900002 10528673
-0.63167238 -0.15873417 0.86000001 7175015
-0.6276173 -0.15873417 0.86000001 7306601
-0.6235621 -0.15873417 0.86000001 7372140
-0.61950696 -0.15873417 0.86000001 7175015
-0.61545175 -0.15873417 0.86000001 7503980
-0.61139655 -0.15873417 0.86000001 7109735
-0.60734141 -0.15873417 0.86000001 7240808
-0.60328621 -0.15873417 0.86000001 7241321
-0.59923106 -0.15873417 0.86000001 7175528
-0.59517586 -0.15873417 0.86000001 7109481
-0.59112066 -0.15873417 0.86000001 7175276
-0.58706552 -0.15873417 0.86000001 7240556
-0.58301032 -0.15873417 0.86000001 7634544
-0.57895517 -0.15873417 0.86000001 7174763
-0.57489997 -0.15873417 0.86000001 7240556
-0.57084477 -0.15873417 0.86000001 7437165
-0.56678969 -0.15873417 0.86000001 7305066
-0.56273448 -0.15873417 0.86000001 7305579
-0.55867928 -0.15873417 0.86000001 7305579
-0.55462414 -0.15873417 0.86000001 7371372
-0.55056894 -0.15873417 0.86000001 7108970
-0.5465138 -0.15873417 0.86000001 7437165
-0.54245859 -0.15873417 0.86000001 7174763
-0.53840339 -0.15873417 0.86000001 7174763
-0.53434825 -0.15873417 0.86000001 7502958
-0.53029305 -0.15873417 0.86000001 7239788
-0.52623791 -0.15873417 0.86000001 7108972
-0.5221827 -0.15873417 0.86000001 7174765
-0.5181275 -0.15873417 0.86000001 7108972
-0.51407236 -0.15873417 0.86000001 7108972
-0.51001716 -0.15873417 0.86000001 7108972
-0.50596201 -0.15873417 0.86000001 7174511
-0.50190687 -0.15873417 0.86000001 7108718
-0.49785167 -0.15873417 0.86000001 7371374
-0.4937965 -0.15873417 0.86000001 7174765
-0.48974133 -0.15873417 0.86000001 7306351
-0.48568615 -0.15873417 0.86000001 7436913
-0.48163098 -0.15873417 0.86000001 7306610
-0.47757578 -0.15873417 0.86000001 7175024
-0.74736232 -0.25489756 1.381 7438198
-0.73870462 -0.25415927 1.3770001 7569784
-0.73114812 -0.25379011 1.3750001 7700857
-0.72413754 -0.25360554 1.3740001 7635064
-0.71556944 -0.25286725 1.3700001 7964029
-0.70859194 -0.25268266 1.3690001 8292224
-0.70162374 -0.25249809 1.368 8555396
-0.69415683 -0.25212893 1.3660001 7634294
-0.68721223 -0.25194436 1.365 8028539
-0.68027711 -0.2517598 1.3640001 7962746
-0.67335135 -0.2515752 1.363 7963259
-0.66692436 -0.2515752 1.363 7897466
-0.66098201 -0.2517598 1.3640001 8028539
-0.65551007 -0.25212893 1.3660001 7962744
-0.65001923 -0.25249809 1.368 7831158
-0.64592087 -0.25342095 1.373 7699572
-0.64270687 -0.254713 1.3800001 7106919
-0.64034891 -0.25637415 1.3890001 5987411
-0.63881862 -0.25840449 1.4000001 5395531
-0.63808775 -0.26080397 1.4130001 4671556
-0.63678741 -0.26301885 1.4250001 4737090
-0.6344896 -0.26486459 1.4350001 4408382
-0.63209748 -0.26671034 1.4450001 4013626
-0.62961107 -0.26855609 1.455 3947833
-0.62703037 -0.27040184 1.465 3882038
-0.62520194 -0.27261674 1.4770001 3749425
-0.62409747 -0.27520075 1.4910001 3487023
-0.6232748 -0.27796939 1.506 3223851
-0.62312907 -0.28110716 1.5230001 3158058
-0.62241846 -0.28406036 1.539 2763300
-0.62075764 -0.2866444 1.5530001 2303003
-0.61817473 -0.28885928 1.5650001 1776659
-0.61430788 -0.29052046 1.5740001 1776405
-0.60919935 -0.29162791 1.58 3024408
-0.60327256 -0.29236621 1.5840001 5321755
-0.59655577 -0.29273537 1.5860001 5847069
-0.58982009 -0.2931045 1.5880001 5849386
-0.58306557 -0.29347366 1.59 5130551
-0.57593018 -0.29365823 1.5910001 4013617
-0.56842816 -0.29365823 1.5910001 3751476
-0.56092608 -0.29365823 1.5910001 5659738
-0.553424 -0.29365823 1.5910001 5264980
-0.54626507 -0.29384282 1.5920001 4475977
-0.53875828 -0.29384282 1.5920001 5594462
-0.53191888 -0.29421195 1.5940001 5529185
-0.52506059 -0.29458112 1.5960001 6383465
-0.51818347 -0.29495025 1.598 5987937
-0.51128757 -0.29531941 1.6 5264210
-0.50374305 -0.29531941 1.6 5066831
-0.49588841 -0.29513484 1.5990001 4606280
-0.48743239 -0.29458112 1.5960001 4539965
-0.47870398 -0.29384282 1.5920001 3948085
-0.4694213 -0.29273537 1.5860001 4673609
-0.46019518 -0.29162791 1.58 4607563
-0.45045266 -0.2901513 1.572 5003608
-0.44078553 -0.28867474 1.5640001 4740184
-0.43147093 -0.28738269 1.557 4477012
-0.42222238 -0.28609067 1.5500001 2436916
-0.41330749 -0.28498322 1.544 1976363
-0.4055011 -0.28461409 1.5420001 1712673
-0.39823005 -0.28461409 1.5420001 1843746
-0.3919732 -0.28535238 1.5460001 2040353
-0.38642511 -0.2866444 1.5530001 4870988
-0.38081098 -0.28793642 1.5600001 3817536
-0.37537023 -0.28941301 1.5680001 6055013
-0.36938471 -0.29052046 1.5740001 5332060
-0.36357251 -0.29181248 1.5810001 4872022
-0.35746908 -0.29291993 1.5870001 4411471
-0.35152963 -0.29421195 1.5940001 4871507
-0.3455241 -0.29550397 1.6010001 5199702
-0.3392415 -0.29661143 1.6070001 5002071
-0.33310869 -0.29790345 1.6140001 4609114
-0.3267082 -0.2990109 1.6200001 4411481
-0.32044807 -0.30030292 1.6270001 4937561
-0.31431419 -0.30177951 1.6350001 4937561
-0.30829236 -0.30344069 1.6440001 5134942
-0.30218568 -0.30510187 1.6530001 5266530
-0.29563791 -0.30639389 1.6600001 1318435
-0.28850397 -0.30713218 1.664 1582118
-0.28032038 -0.30676302 1.6620001 1320743
-0.27166378 -0.30584016 1.6570001 1913904
-0.26241738 -0.30417898 1.6480001 2369318
-0.25310135 -0.30233324 1.6380001 1974560
-0.24402943 -0.30067205 1.6290001 1448986
-0.23533256 -0.29938006 1.6220001 1777951
-0.22684206 -0.29827258 1.6160001 2172709
-0.21854384 -0.29734972 1.6110001 2106918
-0.21042369 -0.29661143 1.6070001 1909537
-0.20246749 -0.2960577 1.6040001 2106916
-0.1946611 -0.29568857 1.6020001 1975330
-0.18687354 -0.29531941 1.6 2238502
-0.17921697 -0.29513484 1.5990001 2829869
-0.17167717 -0.29513484 1.5990001 6449254
-0.16424002 -0.29531941 1.6 7567735
-0.15679345 -0.29550397 1.6010001 6186084
-0.14952388 -0.2960577 1.6040001 6515310
-0.14222601 -0.29661143 1.6070001 6844529
-0.13489987 -0.29716516 1.6100001 4015430
-0.12762448 -0.29790345 1.6140001 4145479
-0.12038575 -0.29882634 1.6190001 5988956
-0.11303021 -0.2995646 1.623 7565410
-0.10557204 -0.30011833 1.626 6973271
-0.098145783 -0.30085665 1.6300001 8156514
-0.0905708 -0.30122578 1.6320001 8090719
-0.082926184 -0.30141038 1.6330001 7434074
-0.075272128 -0.30159494 1.6340001 7894625
-0.067567296 -0.30159494 1.6340001 7434076
-0.059862465 -0.30159494 1.6340001 8289385
-0.052125711 -0.30141038 1.6330001 7696478
-0.044425599 -0.30141038 1.6330001 8485992
-0.03672548 -0.30141038 1.6330001 7301205
-0.029025363 -0.30141038 1.6330001 8092004
-0.021325245 -0.30141038 1.6330001 7631201
-0.013633471 -0.30159494 1.6340001 7960166
-0.0059322678 -0.30177951 1.6350001 7960679
0.0017783673 -0.30196407 1.636 7763820
0.0094984332 -0.30214867 1.6370001 6842723
0.017227929 -0.30233324 1.6380001 4146503
0.024966855 -0.3025178 1.6390001 4937551
0.032735161 -0.30288696 1.641 6121823
0.04052233 -0.30325612 1.6430001 5858651
0.048357736 -0.30380982 1.646 5857883
0.056187343 -0.30417898 1.6480001 5396566
0.063997 -0.30436355 1.649 5199187
0.071641982 -0.30380982 1.646 4736839
0.079306923 -0.30344069 1.6440001 2238502
0.087058902 -0.30344069 1.6440001 2172709
0.094810888 -0.30344069 1.6440001 2107169
0.098882087 -0.29255077 1.585 1843997
0.10635587 -0.29255077 1.585 1909790
0.080147572 -0.20598528 1.1160001 1975330
0.085869059 -0.20709275 1.1220001 2895915
0.090428419 -0.20543155 1.113 4409154
0.095676571 -0.20543155 1.113 4870988
0.10092472 -0.20543155 1.113 5397332
0.10617287 -0.20543155 1.113 5594711
0.11142102 -0.20543155 1.113 6121055
0.11666917 -0.20543155 1.113 6778472
0.097490042 -0.16427141 0.89000005 6910058
0.10157242 -0.16408685 0.88900006 7435632
0.1055264 -0.16371769 0.88700002 8357251
0.10946152 -0.16334854 0.88500005 8883848
0.11324938 -0.16279481 0.88200003 9212813
0.11714205 -0.16242568 0.88000005 9080974
0.12087804 -0.16187194 0.87700003 8752009
0.12472829 -0.16150281 0.87500006 8620423
0.12855966 -0.16113365 0.87300003 8752522
0.13252416 -0.16094908 0.87200004 8752522
0.13663593 -0.16094908 0.87200004 8686729
0.14074768 -0.16094908 0.87200004 8752522
0.14485943 -0.16094908 0.87200004 8686729
0.14914203 -0.16113365 0.87300003 9278866
0.1532585 -0.16113365 0.87300003 9673111
0.15737499 -0.16113365 0.87300003 9870490
0.16130647 -0.16094908 0.87200004 10133664
0.16541824 -0.16094908 0.87200004 10199457
0.16952999 -0.16094908 0.87200004 10199457
0.17344263 -0.1607645 0.87100005 10199457
0.17734581 -0.16057993 0.87000006 10199457
0.18123958 -0.16039535 0.86900002 10331043
0.1853372 -0.16039535 0.86900002 10528422
0.18921682 -0.16021077 0.86800003 10331043
0.19308701 -0.16002621 0.86700004 10528422
0.19694777 -0.15984163 0.86600006 10725031
0.20103124 -0.15984163 0.86600006 10725031
0.20487787 -0.15965706 0.86500007 10528422
0.2089566 -0.15965706 0.86500007 10396836
0.21278907 -0.15947248 0.86400002 10594215
0.2168631 -0.15947248 0.86400002 10725031
0.22068143 -0.1592879 0.86300004 10725031
0.22475074 -0.1592879 0.86300004 10659238
0.22855493 -0.15910333 0.86200005 10659238
0.23261954 -0.15910333 0.86200005 10790824
0.23640957 -0.15891875 0.86100006 10790824
0.24046947 -0.15891875 0.86100006 10922410
0.24424532 -0.15873417 0.86000001 10856617
0.24830049 -0.15873417 0.86000001 10856617
0.25206223 -0.15854961 0.85900003 10856617
0.25611269 -0.15854961 0.85900003 10922410
0.25986031 -0.15836503 0.85800004 10790824
0.26390606 -0.15836503 0.85800004 10856617
0.26763952 -0.15818046 0.85700005 11119019
0.2716805 -0.15818046 0.85700005 11119019
0.27539983 -0.15799588 0.85600007 10987433
0.27943614 -0.15799588 0.85600007 11053226
0.28347245 -0.15799588 0.85600007 11053226
0.28750879 -0.15799588 0.85600007 11053226
0.29120448 -0.1578113 0.85500002 10921640
0.29523608 -0.1578113 0.85500002 10987433
0.29926768 -0.1578113 0.85500002 10921640
0.30329925 -0.1578113 0.85500002 11053226
0.30733088 -0.1578113 0.85500002 10987433
0.31172666 -0.15799588 0.85600007 11119019
0.31576297 -0.15799588 0.85600007 11119019
0.31979927 -0.15799588 0.85600007 10987433
0.32383561 -0.15799588 0.85600007 11119019
0.32748887 -0.1578113 0.85500002 11119019
0.33152047 -0.1578113 0.85500002 11184555
0.33555204 -0.1578113 0.85500002 11316141
0.33918649 -0.15762673 0.85400003 11118762
0.34321338 -0.15762673 0.85400003 11316141
0.34683365 -0.15744215 0.85300004 11316141
0.35085583 -0.15744215 0.85300004 11118762
0.35446197 -0.15725759 0.85200006 11118762
0.35847941 -0.15725759 0.85200006 11184555
0.36207137 -0.15707301 0.85100001 11316141
0.3665143 -0.15725759 0.85200006 11118762
0.37053177 -0.15725759 0.85200006 11447727
0.37498882 -0.15744215 0.85300004 11447727
0.37945533 -0.15762673 0.85400003 11316141
0.38393125 -0.1578113 0.85500002 11447727
0.38841662 -0.15799588 0.85600007 11512750
0.39245296 -0.15799588 0.85600007 11512750
0.39695242 -0.15818046 0.85700005 11513520
0.40099344 -0.15818046 0.85700005 11513520
0.40550709 -0.15836503 0.85800004 11710129
0.40955284 -0.15836503 0.85800004 11710129
0.41408062 -0.15854961 0.85900003 11907508
0.41813108 -0.15854961 0.85900003 11907506
0.42218155 -0.15854961 0.85900003 11775920
0.4257358 -0.15836503 0.85800004 11841202
0.42978156 -0.15836503 0.85800004 11841202
0.43332168 -0.15818046 0.85700005 11710129
0.4373627 -0.15818046 0.85700005 11775409
0.44140375 -0.15818046 0.85700005 11643823
0.44544479 -0.15818046 0.85700005 11644336
0.44948581 -0.15818046 0.85700005 11644336
0.45405605 -0.15836503 0.85800004 11578543
0.45810178 -0.15836503 0.85800004 11775922
0.46268615 -0.15854961 0.85900003 11512750
0.46673661 -0.15854961 0.85900003 11578543
0.47078705 -0.15854961 0.85900003 11512750
0.47483751 -0.15854961 0.85900003 11512750
0.47888798 -0.15854961 0.85900003 11512750
0.48293844 -0.15854961 0.85900003 11578030
0.4869889 -0.15854961 0.85900003 11709616
0.49161097 -0.15873417 0.86000001 11643825
0.49566618 -0.15873417 0.86000001 11643825
0.50030243 -0.15891875 0.86100006 11578545
0.50494814 -0.15910333 0.86200005 11578545
0.5096032 -0.1592879 0.86300004 11578543
0.51367253 -0.1592879 0.86300004 11578543
0.51834178 -0.15947248 0.86400002 11512750
0.52302051 -0.15965706 0.86500007 11316141
0.52709925 -0.15965706 0.86500007 11447727
0.5317921 -0.15984163 0.86600006 11316141
0.53587556 -0.15984163 0.86600006 11446957
0.54058248 -0.16002621 0.86700004 11512750
0.54467064 -0.16002621 0.86700004 11578541
0.54875886 -0.16002621 0.86700004 11118760
0.55284703 -0.16002621 0.86700004 11053224
0.55757761 -0.16021077 0.86800003 10790822
0.56167048 -0.16021077 0.86800003 10791075
-0.63167238 -0.154679 0.86000001 7307114
-0.6276173 -0.154679 0.86000001 7438700
-0.6235621 -0.154679 0.86000001 7108968
-0.61950696 -0.154679 0.86000001 7240554
-0.61545175 -0.154679 0.86000001 7372140
-0.61139655 -0.154679 0.86000001 7503726
-0.60734141 -0.154679 0.86000001 7240554
-0.60328621 -0.154679 0.86000001 7240554
-0.59923106 -0.154679 0.86000001 7174763
-0.59517586 -0.154679 0.86000001 7372142
-0.59112066 -0.154679 0.86000001 7634546
-0.58706552 -0.154679 0.86000001 7306351
-0.58301032 -0.154679 0.86000001 7306351
-0.57895517 -0.154679 0.86000001 7437167
-0.57489997 -0.154679 0.86000001 7371374
-0.57084477 -0.154679 0.86000001 7437167
-0.56678969 -0.154679 0.86000001 7239788
-0.56273448 -0.154679 0.86000001 7240556
-0.55867928 -0.154679 0.86000001 7306349
-0.55462414 -0.154679 0.86000001 7042407
-0.55056894 -0.154679 0.86000001 7108972
-0.5465138 -0.154679 0.86000001 6977899
-0.54245859 -0.154679 0.86000001 6911593
-0.53840339 -0.154679 0.86000001 7240558
-0.53434825 -0.154679 0.86000001 7305581
-0.53029305 -0.154679 0.86000001 7305581
-0.52623791 -0.154679 0.86000001 7108718
-0.5221827 -0.154679 0.86000001 7174511
-0.5181275 -0.154679 0.86000001 7305327
-0.51407236 -0.154679 0.86000001 7371374
-0.51001716 -0.154679 0.86000001 7043179
-0.50596201 -0.154679 0.86000001 7108972
-0.50190687 -0.154679 0.86000001 7108972
-0.49785167 -0.154679 0.86000001 7306351
-0.4937965 -0.154679 0.86000001 7306351
-0.48974133 -0.154679 0.86000001 7371374
-0.48568615 -0.154679 0.86000001 7502960
-0.48163098 -0.154679 0.86000001 7306097
-0.47757578 -0.154679 0.86000001 7371890
-0.74627995 -0.24802598 1.3790001 7371890
-0.73816812 -0.2474864 1.376 7569784
-0.73061639 -0.24712668 1.3740001 7635577
-0.7230835 -0.24676697 1.3720001 7635577
-0.71504712 -0.24622738 1.3690001 7766648
-0.70807427 -0.24604753 1.368 8095613
-0.7011109 -0.24586767 1.3670001 8227199
-0.69364864 -0.24550794 1.365 7240306
-0.68670881 -0.2453281 1.3640001 7831673
-0.68027711 -0.2453281 1.3640001 8160125
-0.67335135 -0.24514823 1.363 8160123
-0.66692436 -0.24514823 1.363 8160123
-0.66098201 -0.2453281 1.3640001 7896951
-0.65551007 -0.24568781 1.3660001 8160123
-0.6504944 -0.24622738 1.3690001 7896951
-0.64639133 -0.24712668 1.3740001 7896951
-0.64317256 -0.2483857 1.381 6777702
-0.64080995 -0.25000444 1.3900001 5724242
-0.63973117 -0.25216275 1.4020001 5329484
-0.63853931 -0.25432104 1.414 5000519
-0.63678741 -0.2562995 1.4250001 4474175
-0.63493174 -0.25827798 1.4360001 4211005
-0.63253492 -0.26007655 1.4460001 3948603
-0.62961107 -0.2616953 1.455 3882810
-0.62703037 -0.26349387 1.465 3488050
-0.62520194 -0.26565221 1.4770001 3553073
-0.62409747 -0.26817021 1.4910001 3355694
-0.6236887 -0.27104798 1.5070001 3158315
-0.62312907 -0.27392572 1.5230001 2895397
-0.62241846 -0.27680346 1.539 2763300
-0.62075764 -0.27932149 1.5530001 2434592
-0.61817473 -0.28147981 1.5650001 1580053
-0.61430788 -0.28309855 1.5740001 1777434
-0.60919935 -0.28417769 1.58 3088917
-0.60327256 -0.28489715 1.5840001 5387802
-0.59693193 -0.28543672 1.5870001 6110493
-0.59019154 -0.28579643 1.5890001 5652005
-0.58306557 -0.28597629 1.59 5656895
-0.57593018 -0.28615615 1.5910001 3882288
-0.56878549 -0.28633603 1.5920001 3818039
-0.56127864 -0.28633603 1.5920001 5659991
-0.553424 -0.28615615 1.5910001 5594711
-0.54626507 -0.28633603 1.5920001 4475464
-0.53909665 -0.28651586 1.5930001 5661025
-0.53191888 -0.28669575 1.5940001 5529185
-0.52538961 -0.28723532 1.5970001 6448486
-0.51850778 -0.28759503 1.5990001 6184544
-0.51160711 -0.28795475 1.6010001 5460815
-0.50405788 -0.28795475 1.6010001 5067601
-0.49650866 -0.28795475 1.6010001 4672843
-0.48804319 -0.28741518 1.598 4605758
-0.47900465 -0.28651586 1.5930001 4013619
-0.46971729 -0.28543672 1.5870001 4541770
-0.46019518 -0.28417769 1.58 5001810
-0.4507392 -0.28291869 1.5730001 5266013
-0.44078553 -0.28129995 1.5640001 5003358
-0.43119383 -0.27986109 1.5560001 4740186
-0.42194995 -0.27860206 1.549 2371125
-0.41277212 -0.27734303 1.5420001 2173742
-0.40471217 -0.27680346 1.539 1646882
-0.39745528 -0.27680346 1.539 1712675
-0.39121258 -0.27752292 1.5430001 2040353
-0.3854298 -0.27860206 1.549 4672843
-0.38007864 -0.28004092 1.557 3686463
-0.37489146 -0.28165966 1.5660001 6252908
-0.36915001 -0.28291869 1.5730001 5332060
-0.36334255 -0.28417769 1.58 4872022
-0.35724384 -0.28525686 1.5860001 4477264
-0.35130909 -0.28651586 1.5930001 4674641
-0.34530827 -0.28777489 1.6 4739921
-0.3392415 -0.28903392 1.6070001 5266267
-0.33290231 -0.29011306 1.613 4937563
-0.3267082 -0.29137209 1.6200001 4740446
-0.320645 -0.29281095 1.628 4411733
-0.31469867 -0.29442969 1.6370001 4674903
-0.30885494 -0.29622826 1.6470001 5464421
-0.30328253 -0.29838657 1.659 5398116
-0.29706267 -0.30000532 1.6680001 1581607
-0.29023778 -0.30108446 1.674 1319462
-0.28234434 -0.30108446 1.674 1320743
-0.27346721 -0.30000532 1.6680001 1584687
-0.26416895 -0.29838657 1.659 2307377
-0.25449201 -0.29622826 1.6470001 2105376
-0.24507806 -0.2942498 1.636 1777951
-0.236058 -0.29263109 1.6270001 1449501
-0.22726318 -0.2911922 1.6190001 1844259
-0.21881515 -0.29011306 1.613 1777953
-0.21068557 -0.28939363 1.6090001 2106916
-0.2025937 -0.28867418 1.605 1777951
-0.1946611 -0.2881346 1.6020001 2238502
-0.18699035 -0.28795475 1.6010001 2172709
-0.17921697 -0.28759503 1.5990001 2370088
-0.17167717 -0.28759503 1.5990001 5593945
-0.16413738 -0.28759503 1.5990001 8028286
-0.1566955 -0.28777489 1.6 7436149
-0.14933744 -0.2881346 1.6020001 6383976
-0.142049 -0.28867418 1.605 6450287
-0.13473228 -0.28921375 1.608 6845045
-0.12738727 -0.28975335 1.6110001 5725281
-0.12016268 -0.29065263 1.6160001 5068116
-0.11282129 -0.29137209 1.6200001 5921618
-0.10544219 -0.29209152 1.6240001 8025959
-0.098025352 -0.29281095 1.628 8091234
-0.090515301 -0.29335052 1.631 7695963
-0.082926184 -0.29371026 1.6330001 8223592
-0.075272128 -0.29389009 1.6340001 8092006
-0.067567296 -0.29389009 1.6340001 7301718
-0.059862465 -0.29389009 1.6340001 8485994
-0.052125711 -0.29371026 1.6330001 7302490
-0.044425599 -0.29371026 1.6330001 8485992
-0.03672548 -0.29371026 1.6330001 8156514
-0.029025363 -0.29371026 1.6330001 7761756
-0.021325245 -0.29371026 1.6330001 8223592
-0.013633471 -0.29389009 1.6340001 6710099
-0.0059286389 -0.29389009 1.6340001 8091752
0.0017772804 -0.29406998 1.6350001 7894888
0.0094926301 -0.2942498 1.636 7763820
0.017206892 -0.2942498 1.636 5264463
0.024936389 -0.29442969 1.6370001 4279883
0.032675318 -0.29460955 1.6380001 5135441
0.040448338 -0.29496926 1.6400001 5924957
0.048240222 -0.29532897 1.6420001 5396819
0.056050964 -0.29568869 1.6440001 5857370
0.06384176 -0.29586855 1.6450001 4804431
0.071554936 -0.29568869 1.6440001 5396049
0.079355165 -0.29586855 1.6450001 2829869
0.087005951 -0.29550883 1.6430001 2369318
0.094753221 -0.29550883 1.6430001 1975330
0.098882087 -0.28507698 1.585 1975330
0.10635587 -0.28507698 1.585 1975330
0.081009373 -0.20288129 1.128 2106916
0.087170102 -0.20485975 1.1390001 2567467
0.090428419 -0.20018341 1.113 4212545
0.095676571 -0.20018341 1.113 5132877
0.10092472 -0.20018341 1.113 5659991
0.10617287 -0.20018341 1.113 5922910
0.11142102 -0.20018341 1.113 6316898
0.11666917 -0.20018341 1.113 6778472
0.097380504 -0.15989493 0.88900006 6975851
0.10145818 -0.15971507 0.88800007 7501425
0.1055264 -0.1595352 0.88700002 8423557
0.10933784 -0.15899563 0.88400006 8884108
0.11324938 -0.1586359 0.88200003 9147280
0.11700894 -0.15809633 0.87900007 9015694
0.12074021 -0.15755676 0.87600005 8818315
0.12458574 -0.15719703 0.87400001 8752522
0.12841241 -0.15683731 0.87200004 8752522
0.13237219 -0.15665746 0.87100005 8884108
0.13647923 -0.15665746 0.87100005 8818315
0.14074768 -0.15683731 0.87200004 8884108
0.14485943 -0.15683731 0.87200004 8884108
0.14914203 -0.15701717 0.87300003 9344661
0.1532585 -0.15701717 0.87300003 9738906
0.15737499 -0.15701717 0.87300003 9936285
0.16149145 -0.15701717 0.87300003 10002591
0.16541824 -0.15683731 0.87200004 10134177
0.16952999 -0.15683731 0.87200004 10133664
0.17344263 -0.15665746 0.87100005 10265250
0.17754966 -0.15665746 0.87100005 10265252
0.18144815 -0.1564776 0.87000006 10331045
0.1853372 -0.15629773 0.86900002 10594217
0.18921682 -0.15611787 0.86800003 10331045
0.19308701 -0.15593801 0.86700004 10396836
0.19717519 -0.15593801 0.86700004 10659238
0.20103124 -0.15575816 0.86600006 10527652
0.20511471 -0.15575816 0.86600006 10790824
0.2089566 -0.1555783 0.86500007 10659238
0.21303536 -0.1555783 0.86500007 10659238
0.2168631 -0.15539843 0.86400002 10790824
0.22093713 -0.15539843 0.86400002 10856617
0.22475074 -0.15521857 0.86300004 10790824
0.22882007 -0.15521857 0.86300004 10856617
0.23261954 -0.15503871 0.86200005 10856617
0.23668414 -0.15503871 0.86200005 10790824
0.24046947 -0.15485886 0.86100006 10856617
0.24452934 -0.15485886 0.86100006 10922410
0.24830049 -0.154679 0.86000001 10922410
0.25235566 -0.154679 0.86000001 10922410
0.25611269 -0.15449914 0.85900003 10856617
0.26016316 -0.15449914 0.85900003 10790824
0.26390606 -0.15431929 0.85800004 10988203
0.26763952 -0.15413943 0.85700005 11250605
0.2716805 -0.15413943 0.85700005 10790054
0.27572155 -0.15413943 0.85700005 10987433
0.27943614 -0.15395957 0.85600007 10922410
0.28347245 -0.15395957 0.85600007 10922410
0.28750879 -0.15395957 0.85600007 10856617
0.29120448 -0.1537797 0.85500002 10790824
0.29523608 -0.1537797 0.85500002 10790824
0.29926768 -0.1537797 0.85500002 10725031
0.30329925 -0.1537797 0.85500002 11053226
0.30733088 -0.1537797 0.85500002 10987433
0.31136248 -0.1537797 0.85500002 11053226
0.31539407 -0.1537797 0.85500002 11119019
0.31942567 -0.1537797 0.85500002 11119019
0.32345727 -0.1537797 0.85500002 11053226
0.32748887 -0.1537797 0.85500002 11119019
0.33152047 -0.1537797 0.85500002 11053226
0.33555204 -0.1537797 0.85500002 11119019
0.33918649 -0.15359984 0.85400003 11053226
0.34321338 -0.15359984 0.85400003 11053228
0.34724027 -0.15359984 0.85400003 11118762
0.35085583 -0.15341999 0.85300004 11381934
0.35487801 -0.15341999 0.85300004 11513520
0.35847941 -0.15324013 0.85200006 11316141
0.36249685 -0.15324013 0.85200006 11184555
0.3665143 -0.15324013 0.85200006 11316141
0.37096664 -0.15341999 0.85300004 11316141
0.37498882 -0.15341999 0.85300004 11381934
0.37945533 -0.15359984 0.85400003 11447727
0.38393125 -0.1537797 0.85500002 11710129
0.38796285 -0.1537797 0.85500002 11446957
0.39245296 -0.15395957 0.85600007 11644336
0.39648923 -0.15395957 0.85600007 11644336
0.40099344 -0.15413943 0.85700005 11644336
0.40503448 -0.15413943 0.85700005 11513520
0.40955284 -0.15431929 0.85800004 11578543
0.4135986 -0.15431929 0.85800004 11775922
0.41764432 -0.15431929 0.85800004 11710129
0.42169008 -0.15431929 0.85800004 11973301
0.4257358 -0.15431929 0.85800004 11644336
0.42928064 -0.15413943 0.85700005 11775409
0.43281606 -0.15395957 0.85600007 11775409
0.43685237 -0.15395957 0.85600007 11775409
0.4408887 -0.15395957 0.85600007 11775407
0.44492501 -0.15395957 0.85600007 11643821
0.44896132 -0.15395957 0.85600007 11578030
0.45299765 -0.15395957 0.85600007 11643823
0.45756787 -0.15413943 0.85700005 11578543
0.46160892 -0.15413943 0.85700005 11578030
0.46619329 -0.15431929 0.85800004 11643823
0.47023898 -0.15431929 0.85800004 11512750
0.47428474 -0.15431929 0.85800004 11381934
0.47833046 -0.15431929 0.85800004 11709616
0.48237622 -0.15431929 0.85800004 11643823
0.48642197 -0.15431929 0.85800004 11578030
0.49103937 -0.15449914 0.85900003 11578030
0.49508983 -0.15449914 0.85900003 11578032
0.49972135 -0.154679 0.86000001 11446959
0.50436234 -0.15485886 0.86100006 11512752
0.50842226 -0.15485886 0.86100006 11578545
0.51307732 -0.15503871 0.86200005 11512752
0.51774186 -0.15521857 0.86300004 11512752
0.52241582 -0.15539843 0.86400002 11578545
0.52709925 -0.1555783 0.86500007 11315373
0.5317921 -0.15575816 0.86600006 11316400
0.53587556 -0.15575816 0.86600006 11447984
0.54058248 -0.15593801 0.86700004 11119019
0.54467064 -0.15593801 0.86700004 11119019
0.54875886 -0.15593801 0.86700004 11053226
0.55284703 -0.15593801 0.86700004 10988203
0.55693519 -0.15593801 0.86700004 10856615
0.56102341 -0.15593801 0.86700004 10528673
-0.63167238 -0.15062381 0.86000001 7175526
-0.6276173 -0.15062381 0.86000001 7438698
-0.6235621 -0.15062381 0.86000001 7175528
-0.61950696 -0.15062381 0.86000001 7043688
-0.61545175 -0.15062381 0.86000001 7306862
-0.61139655 -0.15062381 0.86000001 7241069
-0.60734141 -0.15062381 0.86000001 7043942
-0.60328621 -0.15062381 0.86000001 6978149
-0.59923106 -0.15062381 0.86000001 7044456
-0.59517586 -0.15062381 0.86000001 6846825
-0.59112066 -0.15062381 0.86000001 6978413
-0.58706552 -0.15062381 0.86000001 7240558
-0.58301032 -0.15062381 0.86000001 7109485
-0.57895517 -0.15062381 0.86000001 7174765
-0.57489997 -0.15062381 0.86000001 7306351
-0.57084477 -0.15062381 0.86000001 7240558
-0.56678969 -0.15062381 0.86000001 7305581
-0.56273448 -0.15062381 0.86000001 7108972
-0.55867928 -0.15062381 0.86000001 7108972
-0.55462414 -0.15062381 0.86000001 7173995
-0.55056894 -0.15062381 0.86000001 7306351
-0.5465138 -0.15062381 0.86000001 7239786
-0.54245859 -0.15062381 0.86000001 7239786
-0.53840339 -0.15062381 0.86000001 7305581
-0.53434825 -0.15062381 0.86000001 7108972
-0.53029305 -0.15062381 0.86000001 7174765
-0.52623791 -0.15062381 0.86000001 7174765
-0.5221827 -0.15062381 0.86000001 7240558
-0.5181275 -0.15062381 0.86000001 7108972
-0.51407236 -0.15062381 0.86000001 7240558
-0.51001716 -0.15062381 0.86000001 7043179
-0.50596201 -0.15062381 0.86000001 7043438
-0.50190687 -0.15062381 0.86000001 7174511
-0.49785167 -0.15062381 0.86000001 7108718
-0.4937965 -0.15062381 0.86000001 7240558
-0.48974133 -0.15062381 0.86000001 7239788
-0.48568615 -0.15062381 0.86000001 7239788
-0.48163098 -0.15062381 0.86000001 7436913
-0.47757578 -0.15062381 0.86000001 7503476
-0.75006819 -0.24274956 1.386 7371890
-0.73709524 -0.24064784 1.3740001 7766650
-0.72902113 -0.24012239 1.3710001 7569784
-0.72202945 -0.23994726 1.3700001 7767163
-0.71348017 -0.23924668 1.3660001 7766648
-0.70652151 -0.23907152 1.365 8094843
-0.69957221 -0.23889638 1.3640001 8292992
-0.69263232 -0.23872124 1.363 7240817
-0.68620533 -0.23872124 1.363 7766650
-0.67927963 -0.2385461 1.3620001 8094845
-0.6728574 -0.2385461 1.3620001 8094845
-0.66692436 -0.23872124 1.363 8028539
-0.66098201 -0.23889638 1.3640001 7896953
-0.65598994 -0.23942183 1.3670001 7962746
-0.65096956 -0.23994726 1.3700001 7896951
-0.64686179 -0.24082299 1.3750001 7698802
-0.64363831 -0.24204898 1.3820001 6776932
-0.64173192 -0.24380042 1.3920001 5658451
-0.6401875 -0.24572702 1.4030001 5197898
-0.63899088 -0.24782874 1.4150001 4803140
-0.63723427 -0.24975532 1.4260001 4671556
-0.63537389 -0.25168189 1.437 3882808
-0.63253492 -0.2532582 1.4460001 4276796
-0.62961107 -0.25483447 1.455 3882808
-0.62745839 -0.25676107 1.4660001 3618866
-0.62520194 -0.25868767 1.4770001 3487280
-0.62409747 -0.26113966 1.4910001 3553327
-0.6232748 -0.26376683 1.506 3290155
-0.62271988 -0.26656914 1.5220001 3026983
-0.62201405 -0.26937145 1.5380001 2698018
-0.62075764 -0.27199861 1.5530001 2369053
-0.61817473 -0.27410033 1.5650001 1908502
-0.61391759 -0.27550149 1.5730001 2040088
-0.60919935 -0.2767275 1.58 3613719
-0.60327256 -0.27742806 1.5840001 5583895
-0.59693193 -0.27795351 1.5870001 6110493
-0.59056294 -0.27847892 1.59 5455139
-0.58343226 -0.27865407 1.5910001 5262137
-0.57629222 -0.27882922 1.5920001 3947824
-0.5691427 -0.27900437 1.5930001 3949371
-0.5616312 -0.27900437 1.5930001 5594198
-0.55377185 -0.27882922 1.5920001 5659991
-0.54626507 -0.27882922 1.5920001 4541259
-0.53909665 -0.27900437 1.5930001 5661025
-0.53225255 -0.27935463 1.595 5660771
-0.52571857 -0.27988008 1.598 6252390
-0.51883203 -0.28023037 1.6 6053726
-0.51192671 -0.28058067 1.6020001 5593428
-0.50468755 -0.28075579 1.603 5199189
-0.49681878 -0.28058067 1.6020001 4672843
-0.4883486 -0.28005522 1.5990001 4737344
-0.47960603 -0.27935463 1.595 4474170
-0.47030923 -0.2783038 1.5890001 4606280
-0.46048647 -0.27690265 1.5810001 5199704
-0.4507392 -0.27550149 1.5730001 5068634
-0.44106734 -0.27410033 1.5650001 4937050
-0.43119383 -0.27252403 1.5560001 5134944
-0.42167756 -0.27112287 1.5480001 2832189
-0.41250446 -0.26989689 1.5410001 2437431
-0.40418625 -0.2691963 1.5370001 1712675
-0.3966805 -0.26902115 1.536 1646880
-0.39045197 -0.26972172 1.5400001 1909539
-0.38468334 -0.27077261 1.5460001 4606280
-0.37959042 -0.27234888 1.5550001 3686463
-0.37417328 -0.27375004 1.5630001 5266267
-0.36868066 -0.27515119 1.5710001 5332573
-0.36288261 -0.2763772 1.5780001 5200987
-0.35701859 -0.27760321 1.585 4280399
-0.35108855 -0.27882922 1.5920001 4542542
-0.34509248 -0.28005522 1.5990001 5002321
-0.33903039 -0.28128123 1.6060001 5726816
-0.33269593 -0.28233209 1.6120001 5266013
-0.32650653 -0.2835581 1.6190001 5003872
-0.32044807 -0.28495926 1.6270001 4345940
-0.31469867 -0.28671071 1.6370001 4542803
-0.30923 -0.28881243 1.649 5530214
-0.30401379 -0.29126444 1.6630001 5266530
-0.29830933 -0.29336616 1.6750001 1450019
-0.2917982 -0.29476732 1.6830001 1450019
-0.28419966 -0.29511762 1.6850001 1319462
-0.27543461 -0.29424188 1.6800001 1189929
-0.26592052 -0.29249045 1.6700001 1847859
-0.25603718 -0.29021358 1.6570001 2699570
-0.24627648 -0.28793669 1.6440001 1974562
-0.23692854 -0.28601012 1.6330001 1450273
-0.22782467 -0.28425866 1.623 1318685
-0.21922213 -0.28303266 1.6160001 1909539
-0.21094745 -0.28215694 1.6110001 1975332
-0.20271994 -0.28128123 1.6060001 1975332
-0.1947826 -0.28075579 1.603 2172709
-0.18699035 -0.28040552 1.6010001 2106916
-0.17921697 -0.28005522 1.5990001 2304295
-0.17167717 -0.28005522 1.5990001 3290422
-0.16413738 -0.28005522 1.5990001 5659991
-0.15659757 -0.28005522 1.5990001 8028286
-0.14924422 -0.28040552 1.6010001 6119521
-0.14187199 -0.28075579 1.603 5924197
-0.13456471 -0.28128123 1.6060001 6581873
-0.12722912 -0.28180668 1.6090001 3290170
-0.1199396 -0.28250724 1.613 3685182
-0.11261236 -0.28320783 1.6170001 5461072
-0.10531233 -0.28408355 1.6220001 7170652
-0.097904928 -0.28478411 1.626 7104341
-0.090404309 -0.28530955 1.6290001 8485479
-0.082875401 -0.28583497 1.6320001 7959135
-0.075226068 -0.28601012 1.6330001 7170902
-0.067567296 -0.28618526 1.6340001 8092004
-0.059862465 -0.28618526 1.6340001 7762271
-0.052157629 -0.28618526 1.6340001 8420201
-0.044425599 -0.28601012 1.6330001 7433306
-0.03672548 -0.28601012 1.6330001 8551785
-0.029025363 -0.28601012 1.6330001 7301205
-0.021325245 -0.28601012 1.6330001 8223592
-0.013625128 -0.28601012 1.6330001 7960166
-0.0059286389 -0.28618526 1.6340001 8289644
0.0017761933 -0.28618526 1.6340001 7894886
0.0094868289 -0.28636041 1.6350001 7829611
0.017196376 -0.28636041 1.6350001 7566700
0.024921156 -0.28653553 1.636 3753541
0.032635421 -0.28653553 1.636 4675153
0.040374346 -0.28671071 1.6370001 5924957
0.048152082 -0.28706098 1.6390001 5859164
0.055948682 -0.28741127 1.641 6054749
0.06372533 -0.28758642 1.6420001 5659991
0.071467884 -0.28758642 1.6420001 5396566
0.079258688 -0.28776157 1.6430001 4277315
0.086794123 -0.28706098 1.6390001 2500904
0.094522536 -0.28706098 1.6390001 2303525
0.098882087 -0.27760321 1.585 2237732
0.10635587 -0.27760321 1.585 1843744
0.083738409 -0.20421787 1.166 1975330
0.089848727 -0.20561902 1.174 2435883
0.090428419 -0.19493525 1.113 4410184
0.095676571 -0.19493525 1.113 5068367
0.10092472 -0.19493525 1.113 5857370
0.10617287 -0.19493525 1.113 5988956
0.11142102 -0.19493525 1.113 6449507
0.11666917 -0.19493525 1.113 6844265
0.097270966 -0.15552786 0.88800007 7040874
0.10145818 -0.15552786 0.88800007 7501425
0.10540743 -0.15517756 0.88600004 8423044
0.10933784 -0.15482728 0.88400006 8818315
0.11312098 -0.15430185 0.88100004 9081487
0.11687582 -0.15377641 0.87800002 9081487
0.12060238 -0.15325099 0.87500006 9080974
0.1244432 -0.1529007 0.87300003 8752522
0.12826516 -0.15255041 0.87100005 8884108
0.13237219 -0.15255041 0.87100005 9015696
0.13647923 -0.15255041 0.87100005 9015696
0.14058627 -0.15255041 0.87100005 9015696
0.14485943 -0.15272555 0.87200004 8884110
0.14914203 -0.1529007 0.87300003 9542042
0.1532585 -0.1529007 0.87300003 9805212
0.15737499 -0.1529007 0.87300003 9871005
0.16149145 -0.1529007 0.87300003 10002591
0.16560793 -0.1529007 0.87300003 10002593
0.16952999 -0.15272555 0.87200004 10134177
0.17344263 -0.15255041 0.87100005 10265250
0.17754966 -0.15255041 0.87100005 10331045
0.18144815 -0.15237527 0.87000006 10396838
0.1853372 -0.15220012 0.86900002 10396838
0.18921682 -0.15202497 0.86800003 10396838
0.19330971 -0.15202497 0.86800003 10725031
0.19717519 -0.15184984 0.86700004 10527652
0.20103124 -0.15167469 0.86600006 10528422
0.20511471 -0.15167469 0.86600006 10528422
0.2089566 -0.15149955 0.86500007 10725801
0.21303536 -0.15149955 0.86500007 10528422
0.2168631 -0.15132439 0.86400002 10594215
0.22093713 -0.15132439 0.86400002 10660008
0.22475074 -0.15114926 0.86300004 10790824
0.22882007 -0.15114926 0.86300004 10790824
0.2328894 -0.15114926 0.86300004 10725801
0.23668414 -0.15097411 0.86200005 10725801
0.24074876 -0.15097411 0.86200005 10791594
0.24481334 -0.15097411 0.86200005 10922410
0.24858923 -0.15079898 0.86100006 10856617
0.25235566 -0.15062381 0.86000001 10922410
0.25641087 -0.15062381 0.86000001 10922410
0.26016316 -0.15044868 0.85900003 10988203
0.26390606 -0.15027353 0.85800004 11053226
0.26795179 -0.15027353 0.85800004 10987433
0.2716805 -0.1500984 0.85700005 10987433
0.27572155 -0.1500984 0.85700005 10987433
0.27943614 -0.14992325 0.85600007 10921640
0.28347245 -0.14992325 0.85600007 10921640
0.28717288 -0.1497481 0.85500002 10921640
0.29120448 -0.1497481 0.85500002 10921640
0.29523608 -0.1497481 0.85500002 11119019
0.29891768 -0.14957295 0.85400003 10855847
0.30294454 -0.14957295 0.85400003 10987433
0.30697143 -0.14957295 0.85400003 10987433
0.31099829 -0.14957295 0.85400003 11053226
0.31502518 -0.14957295 0.85400003 11053226
0.31942567 -0.1497481 0.85500002 10987433
0.32345727 -0.1497481 0.85500002 10987433
0.32748887 -0.1497481 0.85500002 11250605
0.33152047 -0.1497481 0.85500002 11053226
0.33555204 -0.1497481 0.85500002 11119019
0.33958367 -0.1497481 0.85500002 11053226
0.34361526 -0.1497481 0.85500002 10987176
0.34724027 -0.14957295 0.85400003 11118762
0.35126713 -0.14957295 0.85400003 11316141
0.35529402 -0.14957295 0.85400003 11118762
0.35890016 -0.14939782 0.85300004 11316141
0.36292231 -0.14939782 0.85300004 11381934
0.36694449 -0.14939782 0.85300004 11381934
0.37096664 -0.14939782 0.85300004 11316141
0.37542844 -0.14957295 0.85400003 11381934
0.37945533 -0.14957295 0.85400003 11578543
0.38393125 -0.1497481 0.85500002 11578541
0.38796285 -0.1497481 0.85500002 11446955
0.39199445 -0.1497481 0.85500002 11710127
0.39602602 -0.1497481 0.85500002 11710127
0.40052554 -0.14992325 0.85600007 11578541
0.40456188 -0.14992325 0.85600007 11644336
0.4090755 -0.1500984 0.85700005 11710129
0.41311654 -0.1500984 0.85700005 11644336
0.41715759 -0.1500984 0.85700005 11644336
0.42119861 -0.1500984 0.85700005 11710129
0.42523962 -0.1500984 0.85700005 11578543
0.42877975 -0.14992325 0.85600007 11710127
0.43281606 -0.14992325 0.85600007 11841200
0.436342 -0.1497481 0.85500002 11643823
0.43985856 -0.14957295 0.85400003 11775409
0.44388545 -0.14957295 0.85400003 11709616
0.44843683 -0.1497481 0.85500002 11643823
0.45246843 -0.1497481 0.85500002 11709614
0.45703396 -0.14992325 0.85600007 11775407
0.46107027 -0.14992325 0.85600007 11709616
0.46564993 -0.1500984 0.85700005 11578030
0.46969092 -0.1500984 0.85700005 11446957
0.47373196 -0.1500984 0.85700005 11578030
0.47833046 -0.15027353 0.85800004 11709614
0.48237622 -0.15027353 0.85800004 11643823
0.48642197 -0.15027353 0.85800004 11578030
0.49046773 -0.15027353 0.85800004 11512237
0.49451345 -0.15027353 0.85800004 11446957
0.49914026 -0.15044868 0.85900003 11512750
0.50319076 -0.15044868 0.85900003 11512237
0.50783169 -0.15062381 0.86000001 11578030
0.51248211 -0.15079898 0.86100006 11709616
0.51714194 -0.15097411 0.86200005 11512750
0.52181119 -0.15114926 0.86300004 11381934
0.52648985 -0.15132439 0.86400002 11447727
0.531178 -0.15149955 0.86500007 11316141
0.53587556 -0.15167469 0.86600006 11446955
0.54058248 -0.15184984 0.86700004 11316139
0.54467064 -0.15184984 0.86700004 11119017
0.54812592 -0.15167469 0.86600006 11119017
0.55220938 -0.15167469 0.86600006 10987431
0.55629283 -0.15167469 0.86600006 10790822
0.55972928 -0.15149955 0.86500007 10791075
-0.63167238 -0.14656866 0.86000001 7174761
-0.6276173 -0.14656866 0.86000001 7240554
-0.6235621 -0.14656866 0.86000001 7043688
-0.61950696 -0.14656866 0.86000001 7109481
-0.61545175 -0.14656866 0.86000001 7043688
-0.61139655 -0.14656866 0.86000001 7109481
-0.60734141 -0.14656866 0.86000001 6978411
-0.60328621 -0.14656866 0.86000001 7043688
-0.59923106 -0.14656866 0.86000001 6911589
-0.59517586 -0.14656866 0.86000001 7175790
-0.59112066 -0.14656866 0.86000001 7240554
-0.58706552 -0.14656866 0.86000001 7043175
-0.58301032 -0.14656866 0.86000001 7174761
-0.57895517 -0.14656866 0.86000001 7108970
-0.57489997 -0.14656866 0.86000001 7108970
-0.57084477 -0.14656866 0.86000001 7371372
-0.56678969 -0.14656866 0.86000001 7305579
-0.56273448 -0.14656866 0.86000001 7240556
-0.55867928 -0.14656866 0.86000001 7043177
-0.55462414 -0.14656866 0.86000001 7043179
-0.55056894 -0.14656866 0.86000001 7305581
-0.5465138 -0.14656866 0.86000001 7173995
-0.54245859 -0.14656866 0.86000001 7239786
-0.53840339 -0.14656866 0.86000001 7043179
-0.53434825 -0.14656866 0.86000001 6911593
-0.53029305 -0.14656866 0.86000001 7174511
-0.52623791 -0.14656866 0.86000001 6911339
-0.5221827 -0.14656866 0.86000001 7108972
-0.5181275 -0.14656866 0.86000001 6977899
-0.51407236 -0.14656866 0.86000001 7042925
-0.51001716 -0.14656866 0.86000001 7305327
-0.50596201 -0.14656866 0.86000001 7305327
-0.50190687 -0.14656866 0.86000001 7305581
-0.49785167 -0.14656866 0.86000001 7174765
-0.4937965 -0.14656866 0.86000001 7108972
-0.48974133 -0.14656866 0.86000001 7174765
-0.48568615 -0.14656866 0.86000001 7306351
-0.48163098 -0.14656866 0.86000001 7437167
-0.47757578 -0.14656866 0.86000001 7240558
-0.47352061 -0.14656866 0.86000001 7504243
-0.73602235 -0.23382814 1.3720001 7438196
-0.72742587 -0.23314641 1.368 7700604
-0.71886724 -0.23246472 1.3640001 7765880
-0.71191323 -0.23229428 1.363 8094843
-0.70496875 -0.23212385 1.3620001 7963257
-0.69854647 -0.23212385 1.3620001 8424578
-0.691616 -0.23195343 1.3610001 7306099
-0.68519843 -0.23195343 1.3610001 7896700
-0.67828214 -0.23178299 1.36 8093309
-0.67236334 -0.23195343 1.3610001 8159872
-0.66643512 -0.23212385 1.3620001 7896953
-0.66098201 -0.23246472 1.3640001 7896953
-0.65551007 -0.23280556 1.3660001 7831160
-0.65096956 -0.23348729 1.3700001 7699574
-0.64733225 -0.23450986 1.376 7830390
-0.64410406 -0.23570284 1.383 6776675
-0.64173192 -0.23723671 1.3920001 5724242
-0.64064378 -0.23928185 1.404 5461070
-0.63899088 -0.24115658 1.4150001 4934726
-0.63768113 -0.24320172 1.427 4474175
-0.63537389 -0.24490599 1.437 4211003
-0.63297236 -0.24661028 1.447 4276798
-0.6300438 -0.24814415 1.4560001 4013626
-0.62703037 -0.249678 1.465 3881783
-0.62520194 -0.25172317 1.4770001 3684404
-0.62367892 -0.25393873 1.4900001 3355696
-0.62286097 -0.25649515 1.5050001 3289901
-0.62231076 -0.259222 1.521 3092519
-0.62160963 -0.26194885 1.5370001 3091749
-0.61995822 -0.26433489 1.5510001 2500380
-0.61738473 -0.26638001 1.5630001 1908502
-0.61352724 -0.26791388 1.572 2040088
-0.60881376 -0.26910686 1.5790001 4270615
-0.60327256 -0.26995903 1.5840001 5847319
-0.59730804 -0.27064073 1.5880001 6307870
-0.59093434 -0.27115202 1.5910001 5455909
-0.58416569 -0.27149287 1.5930001 5130551
-0.57701617 -0.27166331 1.5940001 4342582
-0.56950003 -0.27166331 1.5940001 3883062
-0.56198376 -0.27166331 1.5940001 5659991
-0.55411971 -0.27149287 1.5930001 5659991
-0.54660821 -0.27149287 1.5930001 4541257
-0.53943509 -0.27166331 1.5940001 5463646
-0.53258628 -0.27200416 1.5960001 5529185
-0.52604759 -0.27251545 1.5990001 6186084
-0.51915634 -0.2728563 1.6010001 6053726
-0.51224625 -0.27319714 1.603 5593175
-0.50500244 -0.27336758 1.6040001 5462363
-0.4971289 -0.27319714 1.603 4739151
-0.48865399 -0.27268586 1.6 4540222
-0.47990674 -0.27200416 1.5960001 4277820
-0.47030923 -0.27081117 1.5890001 4277566
-0.46077773 -0.26961815 1.582 5133398
-0.45102578 -0.26825473 1.5740001 5331806
-0.44106734 -0.26672086 1.5650001 4739673
-0.43119383 -0.26518703 1.5560001 5200737
