# .PCD v0.7 - Point Cloud Data file format
VERSION 0.7
FIELDS x y z rgb
SIZE 4 4 4 4
TYPE F F F U
COUNT 1 1 1 1
WIDTH 1166
HEIGHT 1
VIEWPOINT 0 0 0 1 0 0 0
POINTS 1166
DATA ascii
0.12344633 -0.58673966 1.613 7104870
0.13485506 -0.58673966 1.613 7236456
0.14626376 -0.58673966 1.613 7368042
-0.49170813 -0.54009843 1.6100001 1251860
-0.48471782 -0.54076934 1.6120001 1317653
-0.47404903 -0.54160798 1.6145 1317653
-0.46306074 -0.54211122 1.6160001 1514262
-0.45600444 -0.54278213 1.618 1316883
-0.34538066 -0.54278213 1.618 1449237
-0.3333151 -0.54177576 1.6150001 1449237
-0.32549816 -0.54144025 1.6140001 1317651
-0.31749374 -0.54076934 1.6120001 1449239
-0.30580842 -0.54026616 1.6105001 1449239
-0.27542999 -0.54026616 1.6105001 1580568
-0.26428607 -0.54076934 1.6120001 1646618
-0.25684419 -0.54110479 1.613 1712411
-0.24581471 -0.54194349 1.6155001 1645848
-0.23446202 -0.54211122 1.6160001 1777434
-0.22698244 -0.54244667 1.6170001 1580055
-0.21547997 -0.54227895 1.6165001 1711643
-0.20385598 -0.54177576 1.6150001 1777432
-0.19611923 -0.54144025 1.6140001 1645846
-0.18436249 -0.54043388 1.6110001 1843225
-0.024820723 -0.54009843 1.6100001 2434592
-0.013433225 -0.54009843 1.6100001 2500385
-0.0058415602 -0.54009843 1.6100001 2435362
0.92148483 -0.54076934 1.6120001 13027788
-0.5941956 -0.53250676 1.6100001 1251090
-0.51448315 -0.53250676 1.6100001 1645848
-0.50527823 -0.53482199 1.6170001 1317398
-0.15459938 -0.53498733 1.6175001 1842455
-0.14284554 -0.53382975 1.6140001 1843225
-0.13506745 -0.53316826 1.6120001 1974041
-0.12738727 -0.53283751 1.6110001 2039834
-0.11602752 -0.53300285 1.6115 1908249
-0.10472798 -0.533499 1.613 2039836
-0.097182386 -0.53382975 1.6140001 1909018
-0.085870519 -0.53449124 1.6160002 1974811
-0.074581139 -0.53548348 1.6190001 1974811
0.024662197 -0.53548348 1.6190001 2303776
0.036019411 -0.53416049 1.615 2369571
0.93901128 -0.53449124 1.6160001 12501444
0.94663125 -0.53449124 1.6160001 12369856
0.95425123 -0.53449124 1.6160001 12304063
0.96187115 -0.53449124 1.6160001 12304063
-0.60595924 -0.52524108 1.6110001 1382676
-0.59585524 -0.52638221 1.6145 1185297
-0.58461803 -0.52654523 1.6150001 1053711
-0.57628828 -0.52589315 1.613 1185297
-0.56762481 -0.5249151 1.6100001 922642
-0.52239901 -0.52524108 1.6110001 2699566
-0.5168798 -0.5235433 1.6175001 1645852
0.047505748 -0.5271973 1.6170001 2369571
0.055028137 -0.52621919 1.6140001 2303778
0.062561043 -0.52556717 1.6120001 2237985
-0.60374546 -0.51520276 1.6152501 1120017
-0.59351671 -0.51623762 1.6185 988435
-0.58588499 -0.51623762 1.6185 1053971
-0.57771736 -0.51575798 1.6170001 1053713
-0.56505817 -0.51464164 1.6135001 922896
-0.52337182 -0.51480347 1.6140001 2435368
-0.51735914 -0.51258123 1.6190001 1975330
0.062793903 -0.519894 1.618 1974813
-0.60558307 -0.5021401 1.6100001 1251860
-0.59603858 -0.50369954 1.615 1316372
-0.58534199 -0.5043233 1.6170001 1119251
-0.57771736 -0.5043233 1.6170001 1185044
-0.56558228 -0.50369954 1.615 1053970
-0.55261302 -0.50609189 1.6105001 1251090
-0.52603269 -0.50609189 1.6105001 2962484
-0.51640046 -0.50401145 1.6160001 2435111
-0.59113318 -0.49516279 1.6120001 1119504
-0.58425605 -0.49577713 1.6140001 1250320
-0.57700282 -0.4960843 1.6150001 1119251
-0.56488192 -0.49546996 1.6130002 1185555
-0.51480269 -0.49485561 1.6110001 4410186
-0.50878048 -0.49639148 1.6160001 3751741
-0.57521647 -0.48695678 1.6100001 988435
-0.56762481 -0.48695678 1.6100001 1382423
-0.50023013 -0.48786411 1.613 2106146
-0.49384597 -0.48907396 1.6170001 2106146
-0.47375542 -0.48040718 1.6135001 3291704
-0.46277422 -0.48085383 1.6150001 3290422
-0.45572263 -0.48144931 1.6170001 4541259
-0.48441711 -0.47966284 1.6110001 3619385
-0.43584138 -0.47294551 1.6140001 6054756
-0.42390907 -0.46475843 1.6120001 6318183
-0.41604969 -0.45687371 1.6110001 4475466
0.45923802 -0.45095062 1.6170001 13158345
-0.40465513 -0.44547915 1.6110001 4541774
0.80796927 -0.44222927 1.613 13815505
0.81759763 -0.44332594 1.6170001 14076881
0.83735299 -0.44927734 1.6110001 13486542
-0.39301646 -0.43381512 1.6100001 4081993
-0.38733995 -0.43597069 1.618 4937300
0.79177475 -0.43408456 1.6110001 13421517
-0.3754265 -0.42781186 1.6160001 5462616
-0.35660189 -0.42045191 1.6170001 5002321
-0.25732189 -0.42019188 1.6160001 1974560
-0.24238159 -0.4283413 1.618 5987933
-0.23446202 -0.42781183 1.6160001 5922910
-0.22698244 -0.4280766 1.6170001 5923943
-0.21949343 -0.4283413 1.618 2699057
-0.18897587 -0.4207119 1.618 5528415
0.78758568 -0.4207119 1.618 13420747
-0.3707014 -0.41915181 1.6120001 5922910
-0.36321294 -0.41548598 1.6125002 5462875
-0.35549921 -0.4115507 1.6120001 4871509
-0.34473556 -0.41231662 1.615 4081738
-0.33414063 -0.41333783 1.6190001 4081739
-0.26445001 -0.41180599 1.613 2435111
-0.20335107 -0.41889179 1.6110001 4607052
-0.19611923 -0.41967186 1.6140001 3620418
-0.18446985 -0.4115507 1.6120001 5660513
0.77851021 -0.41231662 1.6150001 13091782
-0.35505816 -0.40344849 1.6100001 5199191
-0.34398967 -0.40382436 1.6115 4279374
-0.33290231 -0.40420023 1.613 4344913
-0.32590151 -0.40495199 1.6160001 4872022
-0.31867546 -0.40545318 1.618 4542803
-0.28052852 -0.40545318 1.618 2566699
-0.27205583 -0.40420023 1.613 2303527
-0.17339501 -0.40470144 1.6150001 6121574
-0.33228317 -0.39585683 1.6100001 4279633
-0.32509482 -0.39634857 1.6120001 4739923
-0.31427461 -0.39708617 1.615 4477268
-0.30322918 -0.39757791 1.6170001 4477012
-0.2956045 -0.39757791 1.6170001 2172713
-0.28780171 -0.39733204 1.6160001 2567982
-0.27966163 -0.39659441 1.613 1910052
-0.17285819 -0.39585683 1.6100001 6120293
-0.16598508 -0.39757791 1.6170001 6318183
0.77089494 -0.39708617 1.6150001 12894403
-0.33228317 -0.3844693 1.6100001 4345683
-0.32499397 -0.3848263 1.6115 4477526
-0.31403196 -0.38536423 1.6137501 4872027
-0.30294788 -0.38578153 1.6155001 4674393
-0.29533029 -0.38578153 1.6155001 3291968
-0.28744555 -0.38542449 1.6140001 1975334
-0.27931485 -0.38470811 1.6110001 2633262
-0.16557448 -0.38518804 1.6130002 6121063
-0.15845832 -0.38256499 1.618 6318185
-0.33618218 -0.37319767 1.6105001 4477271
-0.32529649 -0.37377697 1.613 4609112
-0.31446922 -0.37447214 1.6160002 5266785
-0.3034167 -0.3749356 1.618 5200483
-0.2956045 -0.37470388 1.6170001 4674907
-0.28762364 -0.37424043 1.6150001 1712162
-0.27948824 -0.37354526 1.6120001 1908771
-0.16526653 -0.3730818 1.6100001 5266015
-0.15826246 -0.37447214 1.6160001 6121322
-0.33628535 -0.36571717 1.6110001 4608856
-0.32569987 -0.36662522 1.6150001 4805975
-0.31485844 -0.36730623 1.618 5003871
-0.28408313 -0.36696571 1.6165001 1646627
-0.2717185 -0.36571714 1.6110001 2304299
-0.15816453 -0.36662522 1.6150001 5660771
-0.34008589 -0.35432255 1.6110001 4739926
-0.33300549 -0.35487124 1.6135001 4740185
-0.32600236 -0.35553107 1.6165001 4542805
-0.31887242 -0.35989913 1.6190001 5923943
-0.28052852 -0.35967684 1.618 1646882
-0.27247751 -0.35530877 1.6155001 1646882
-0.26420408 -0.35442901 1.6115 2238761
-0.15434983 -0.3552047 1.615 5397597
-0.34008589 -0.34292799 1.6110001 4937048
-0.33310869 -0.3435666 1.6140001 4805977
-0.32610318 -0.3442052 1.6170001 4674391
-0.26494184 -0.34399232 1.6160001 1844261
-0.25668496 -0.34314087 1.6120001 2304810
-0.15054929 -0.34377947 1.6150001 4870485
-0.33649176 -0.33553979 1.6120001 4871514
-0.32610318 -0.33658054 1.6170001 4674393
-0.2654337 -0.33699685 1.6190001 1647652
-0.25716266 -0.33616424 1.6150001 1647652
-0.24892934 -0.33533162 1.6110001 2502189
-0.15026963 -0.33553979 1.6120001 3950153
-0.14311105 -0.33658054 1.6170001 5858404
-0.33290231 -0.32433921 1.613 4806492
-0.32610318 -0.32514352 1.6170001 4478041
-0.25398254 -0.32554567 1.6190001 1581346
-0.24411948 -0.32553747 1.6126667 2238760
-0.1500832 -0.32753181 1.6100001 5661025
-0.14280128 -0.32444328 1.6135001 4804689
-0.13548638 -0.3213312 1.6170001 6055013
-0.33290231 -0.31293046 1.613 5069663
-0.32630485 -0.3139005 1.618 5003870
-0.24238159 -0.3139005 1.618 2107431
-0.23402676 -0.31293046 1.613 1910050
-0.14249152 -0.31234848 1.6100001 6252390
-0.13523501 -0.31312448 1.6140001 6120293
-0.12801985 -0.31409451 1.6190001 6383463
-0.33290231 -0.30532467 1.613 5134944
-0.32650653 -0.30646044 1.6190001 4937565
-0.23460712 -0.30608186 1.6170001 2173224
-0.22628058 -0.3051354 1.6120001 2107429
-0.13506745 -0.3051354 1.6120001 4146501
-0.12778263 -0.30589256 1.6160001 6055013
-0.33290231 -0.29391596 1.613 5200734
-0.32650653 -0.29500926 1.6190001 4938080
-0.22670171 -0.29808804 1.6150001 2239015
-0.2186795 -0.29372904 1.6120001 2041123
-0.12267473 -0.29567266 1.6156667 5528409
-0.33269593 -0.28233209 1.6120001 5660773
-0.32650653 -0.2835581 1.6190001 5136228
-0.21515262 -0.28268239 1.6140001 1910564
-0.12738727 -0.28975335 1.6110001 6054500
-0.11627598 -0.28285754 1.615 4738378
-0.33228317 -0.27439016 1.6100001 5463392
-0.32610318 -0.27558318 1.6170001 5727081
-0.21134028 -0.27507189 1.6140001 1844259
-0.11613198 -0.27490145 1.6130002 5791583
-0.10511755 -0.27592403 1.6190001 6119254
-0.32569987 -0.26762706 1.6150001 5792872
-0.31887242 -0.26065579 1.6190001 5069411
-0.2117331 -0.26795849 1.6170001 2173224
-0.20335107 -0.2669642 1.6110001 2173224
-0.11226415 -0.26712993 1.6120001 3817538
-0.10492276 -0.26779276 1.6160001 6185565
-0.097363025 -0.26033381 1.6170001 5987666
0.093196101 -0.26398277 1.6160001 3158064
-0.32509482 -0.25952882 1.6120001 5398112
-0.31788763 -0.2522403 1.6140001 5530216
-0.20372975 -0.2560432 1.6140001 2106918
-0.19563319 -0.25161517 1.6100001 2106918
-0.10472798 -0.25968981 1.613 5724763
-0.097061962 -0.25192773 1.6120001 6119521
-0.089682855 -0.25255287 1.6160001 7105118
0.085682057 -0.25286543 1.618 4211522
-0.31066158 -0.2449329 1.6160001 4937311
-0.20410843 -0.24508448 1.6170001 1778468
-0.19575469 -0.24417506 1.6110001 1910054
-0.0856556 -0.24432665 1.6120001 7236705
-0.074489005 -0.24508448 1.6170001 9143922
-0.066947035 -0.24538761 1.6190001 9340786
0.07810092 -0.24538761 1.6190001 5790805
-0.30285412 -0.23716609 1.6150001 4411735
-0.20410843 -0.23745979 1.6170001 1449503
-0.19575469 -0.23657867 1.6110001 2107433
-0.074166544 -0.23643184 1.6100001 9210487
-0.066698924 -0.23687238 1.613 9341299
-0.055374727 -0.23723951 1.6155001 8748650
-0.043990318 -0.23745979 1.6170001 9341301
-0.036388133 -0.23760664 1.618 7959135
-0.028776521 -0.2377535 1.6190001 9275508
-0.0058742147 -0.2377535 1.6190001 7300691
0.0055711372 -0.23760664 1.618 9143922
0.01699654 -0.23731294 1.6160001 8947313
0.024616497 -0.23731294 1.6160001 8750449
0.036093403 -0.23760664 1.618 8158832
0.047564507 -0.23011939 1.6190001 6316376
0.074187383 -0.23364274 1.6170001 5134673
-0.29487324 -0.22926657 1.613 4872282
-0.28000838 -0.22193563 1.6150001 4213579
-0.21186404 -0.22234787 1.618 2369320
-0.20372975 -0.22560817 1.6140001 1910053
-0.19563319 -0.22884017 1.6100001 1712673
-0.051391549 -0.22884017 1.6100001 8946028
-0.043854292 -0.22912444 1.6120001 9275508
-0.036275685 -0.22926657 1.613 9143922
-0.024876764 -0.22557263 1.6137501 7500384
-0.013474943 -0.22574559 1.615 7763555
-0.0058578872 -0.22567686 1.6145 7434590
0.0055521913 -0.22539733 1.6125001 7171419
0.01695447 -0.22912444 1.6120001 8223592
0.024555566 -0.22912444 1.6120001 7960420
0.035983056 -0.22546722 1.613 7566180
0.047476366 -0.22207303 1.6160001 7698279
0.05519861 -0.2224853 1.6190001 4342839
0.062832713 -0.2224853 1.6190001 3885376
0.074049741 -0.22559874 1.6140001 5069393
-0.26461396 -0.21418767 1.6140001 5133144
-0.25764036 -0.21471848 1.618 5924456
-0.22726318 -0.2148512 1.6190001 1254950
-0.2149515 -0.2139886 1.6125002 1781809
-0.021037949 -0.21378954 1.6110001 6250579
-0.013449912 -0.21392226 1.6120001 6316372
-0.0058488166 -0.21392226 1.6120001 6053454
0.0017501048 -0.21365684 1.6100001 5987661
0.039733093 -0.21378954 1.6110001 8158058
0.047417611 -0.21418767 1.6140001 7565923
0.055096325 -0.21445307 1.6160001 7106145
0.062716283 -0.21445307 1.6160001 3094577
0.070205666 -0.21405496 1.613 4280132
-0.02102489 -0.20606518 1.6100001 7303526
-0.013441568 -0.20619316 1.6110001 7303526
-0.0058451882 -0.20619316 1.6110001 7041122
0.0017501048 -0.20606518 1.6100001 6909536
0.047300097 -0.20606518 1.6100001 7500128
0.054925855 -0.20619316 1.6110001 7105372
0.062483426 -0.20606518 1.6100001 3948601
-0.013433225 -0.19847351 1.6100001 5660504
-0.0058415602 -0.19847351 1.6100001 5923676
-0.52207476 -0.15292352 1.6100001 1316881
-0.51544178 -0.15320846 1.613 1382674
-0.5051232 -0.15354091 1.6165001 1119761
-0.44837505 -0.15368338 1.618 1316883
-0.43585315 -0.15330344 1.6140001 1382676
-0.42338312 -0.15292352 1.6100001 1382676
-0.3246915 -0.15292352 1.6100001 1382676
-0.31709981 -0.15292352 1.6100001 1448216
-0.30571234 -0.15292352 1.6100001 1448471
-0.60345864 -0.14573807 1.6145 1053709
-0.2348973 -0.14614427 1.6190001 1382676
-0.22670171 -0.1457832 1.6150001 1185297
-0.21854384 -0.14542213 1.6110001 1186067
-0.02484031 -0.14546725 1.6115 1580055
-0.013474943 -0.1457832 1.6150001 1777432
-0.0058705863 -0.146054 1.618 1645846
0.0055769393 -0.14614427 1.6190001 1777432
0.017007058 -0.14596374 1.6170001 1777432
0.024570799 -0.14560266 1.613 1777432
-0.1737171 -0.13842461 1.618 1447699
-0.16588242 -0.13825351 1.6160001 1447699
-0.15402593 -0.13786852 1.6115 1316370
-0.081758209 -0.13774019 1.6100001 1448469
-0.074258678 -0.1379113 1.6120001 1448469
-0.066781633 -0.13816796 1.6150001 1382676
-0.059276294 -0.13842461 1.618 1448469
0.047476366 -0.13825351 1.6160001 1514262
-0.62991923 -0.12286135 1.6140001 1119502
-0.63713467 -0.1075736 1.613 1119502
-0.64434081 -0.077102534 1.6120001 988686
-0.64593971 -0.065861568 1.6160002 988686
-0.64673907 -0.054501351 1.618 988686
-0.64713883 -0.046900935 1.6190001 1316881
-0.64713883 -0.035449781 1.6190001 1251089
-0.64673907 -0.023983803 1.618 1185295
-0.64633942 -0.016344309 1.6170001 1316881
-0.64633942 -0.0049073002 1.6170001 1316881
-0.64713883 0.0065377839 1.6190001 1054733
-0.021103242 0.037005495 1.6160001 4143129
0.0017588009 0.037051294 1.618 4079142
-0.021077126 0.044570222 1.6140001 3749146
0.0017544528 0.044570222 1.6140001 3354910
-0.64713883 0.0599765 1.6190001 1448467
-0.021116303 0.052277736 1.6170001 1972485
-0.013458255 0.059754226 1.613 1776391
-0.0058488166 0.059717182 1.6120001 1841671
0.0017566269 0.052245408 1.6160001 2959898
-0.64593965 0.067485318 1.6160001 1448721
-0.013491631 0.067527086 1.6170001 2169612
-0.0058669583 0.067527086 1.6170001 2104073
-0.64474052 0.07496585 1.613 1448721
-0.013508317 0.07524471 1.6190001 2236429
-0.0058742147 0.07524471 1.6190001 2236429
-0.6435414 0.082418092 1.6100001 1514514
-0.013499973 0.082827613 1.618 2368013
-0.0058669583 0.082776427 1.6170001 1907464
-0.63910967 0.098086387 1.618 1579537
-0.021090185 0.097904533 1.6150001 1776657
-0.013458255 0.090177469 1.613 2697493
-0.0058488166 0.090121567 1.6120001 2038026
0.0017560835 0.09411779 1.6155001 5789769
-0.63673973 0.10532376 1.6120001 1645330
-0.028776521 0.10578112 1.6190001 1645076
0.0093707815 0.10551977 1.6150001 2170643
-0.62952894 0.11299489 1.613 1448721
-0.61393648 0.12052595 1.6120001 2105881
-0.60821605 0.12089979 1.6170001 2829604
-0.58280808 0.12796807 1.6100001 2040088
-0.57700282 0.12836549 1.6150001 2040858
-0.29597011 0.12868342 1.6190001 2631971
-0.051646907 0.12860394 1.618 1052939
0.016943952 0.12045118 1.6110001 1316365
0.024646962 0.12860394 1.618 1250572
-0.55381393 0.13589653 1.6140001 2436384
-0.32569987 0.13598074 1.6150001 2566178
-0.27585167 0.13581234 1.6130002 2764069
-0.059056483 0.13572814 1.6120001 1184268
-0.52684343 0.14341813 1.6130002 1513740
-0.47097194 0.14377381 1.6170001 1646866
-0.46220109 0.14341813 1.613 1647379
-0.45374981 0.1431514 1.6100001 1647379
-0.40060812 0.1431514 1.6100001 1712671
-0.39350468 0.14332923 1.6120001 1646878
-0.38614297 0.14341813 1.613 1514779
-0.37496656 0.14350706 1.6140001 3024917
-0.36332554 0.14341813 1.613 2498064
-0.35527867 0.14324032 1.6110001 2169880
-0.26428607 0.14332923 1.6120001 2105627
-0.082164459 0.14386271 1.618 1776407
-0.074212603 0.14324032 1.6110001 1907221
0.032136712 0.14324032 1.6110001 1250572
-0.24970193 0.15130484 1.6160001 1776405
-0.23402676 0.15862976 1.613 1973014
-0.15092216 0.15921983 1.6190001 2170645
-0.14293404 0.15882646 1.6150001 2170645
-0.13498364 0.15843308 1.6110001 1973266
-0.10485784 0.15121122 1.6150001 1645073
0.039733093 0.15083671 1.6110001 1053193
0.055062234 0.15882646 1.6150001 1118732
0.092850082 0.15833473 1.6100001 1579283
0.10044175 0.15833473 1.6100001 1579283
0.085258417 0.16592641 1.6100001 1513744
-1.0663555 0.52533203 1.618 5002815
-1.0899167 0.53329086 1.6190001 4937022
-1.1218163 0.55310136 1.6100001 5002813
-1.1273541 0.56535947 1.6125002 5461566
-1.1369996 0.5758763 1.6100001 5263670
-1.1426493 0.58636713 1.618 5066807
-1.1574101 0.59179389 1.6120001 4869686
-1.1495678 0.59362948 1.6170001 4604457
-1.1530175 0.6010682 1.6165001 4473899
-0.29779822 -0.66169107 1.6290001 4605758
-0.30397928 -0.65462214 1.6210001 5526089
-0.2974326 -0.65320688 1.6270001 3881783
-0.29670134 -0.64394802 1.623 3421232
0.49064535 -0.64275777 1.6200001 13748431
-0.28574204 -0.6374712 1.626 6053205
-0.2667453 -0.63019145 1.6270001 5724244
-0.20562315 -0.63096607 1.6290001 4669767
-0.19769888 -0.63019145 1.6270001 6118753
-0.16721687 -0.63864732 1.6290001 4473667
-0.1555528 -0.63805926 1.6275001 4735556
-0.14408459 -0.6382553 1.628 11183270
-0.13649185 -0.63864732 1.6290001 7300964
-0.10570189 -0.6305787 1.628 6909035
0.1399474 -0.6305787 1.628 7893871
0.46434253 -0.63570696 1.6215 14340567
0.4753677 -0.6351189 1.6200001 14537947
0.48449728 -0.63707918 1.6250001 14274262
-0.2808753 -0.62748009 1.6200001 5527633
-0.27391115 -0.62902939 1.6240001 4211003
-0.1856797 -0.62844837 1.6225001 6843243
-0.12068319 -0.62864208 1.623 4734778
-0.11316951 -0.62941676 1.6250001 6250337
-0.090071328 -0.62098908 1.623 4737618
-0.082519934 -0.62175435 1.6250001 7764866
-0.074995726 -0.62290215 1.628 7237752
-0.067360543 -0.62328482 1.6290001 7042687
0.10930834 -0.62328482 1.6290001 4607567
0.11691778 -0.62290215 1.628 4408905
0.12459432 -0.62290215 1.628 8487291
0.13598019 -0.62232828 1.6265001 7236197
0.46519926 -0.62539423 1.6245 14275033
0.47771516 -0.62290215 1.628 14143705
0.50105238 -0.62328482 1.6290001 12959685
-0.097543664 -0.61984128 1.6200001 5266017
-0.051710751 -0.61220247 1.6200001 4213336
-0.044126343 -0.61295825 1.6220001 9474194
-0.036523074 -0.61371404 1.6240001 9671567
-0.025080446 -0.61484772 1.6270001 9210502
0.086264566 -0.61560357 1.6290001 3815996
0.093830489 -0.61484778 1.6270001 3421238
0.10517518 -0.61390299 1.6245 4278087
0.11663052 -0.61371404 1.6240001 4473926
0.12428819 -0.61371404 1.6240001 8553086
0.13572937 -0.61352509 1.6235001 7433062
0.46037403 -0.6125803 1.6210001 14077912
0.48434818 -0.61772239 1.6245 13748689
0.0055896314 -0.60530996 1.622 8289401
0.0170912 -0.60642958 1.6250001 9145223
0.024799293 -0.60754907 1.628 7103074
0.074624449 -0.60698932 1.6265001 4932162
0.085893884 -0.60530996 1.6220001 4209212
0.093426794 -0.60456359 1.6200001 4011835
0.12398206 -0.60456359 1.6200001 8487550
0.13178338 -0.60530996 1.6220001 6643288
0.03997973 -0.59729326 1.6210001 6644319
0.047652643 -0.59766173 1.6220001 6907230
0.055300891 -0.59766173 1.6220001 6841437
0.062910326 -0.59729326 1.6210001 6644058
1.003065 -0.59729326 1.6210001 12699589
1.003065 -0.58582795 1.6210001 12501954
1.003065 -0.5743627 1.6210001 12370626
1.003065 -0.56671911 1.6210001 12369856
0.91415352 -0.55313295 1.626 13290960
-0.4452461 -0.54362082 1.6205001 1580054
-0.43418702 -0.54412401 1.6220001 1448467
-0.42680171 -0.54445946 1.623 1448469
-0.41570497 -0.54496264 1.6245 1317653
-0.40434051 -0.54513037 1.6250001 1383446
-0.3969222 -0.54546583 1.626 1514262
-0.38518453 -0.54513037 1.6250001 1514519
-0.37346095 -0.54479492 1.6240001 1317653
-0.36535278 -0.54412401 1.6220001 1449239
-0.35726348 -0.5434531 1.6200001 1449237
0.93369681 -0.5434531 1.6200001 12961995
-0.50457191 -0.53045768 1.6270001 1251607
-0.49537301 -0.53647572 1.6220001 1251860
-0.48479325 -0.53746796 1.625 1251860
-0.47417581 -0.5384602 1.628 1186067
-0.31316072 -0.538791 1.6290001 1383444
-0.30529195 -0.5384602 1.628 1317651
-0.2974326 -0.53812951 1.6270001 1251860
-0.28574911 -0.5377987 1.626 1317653
-0.27424845 -0.5377987 1.626 1449239
-0.2667453 -0.53812951 1.6270001 1710871
-0.25547171 -0.5386256 1.6285 1579542
-0.19014384 -0.5384602 1.628 1580055
-0.18224314 -0.5377987 1.626 1777434
-0.17436129 -0.53713721 1.6240001 1908250
-0.16639566 -0.53614497 1.6210001 1908248
-0.066988386 -0.53581423 1.6200001 1909018
-0.055596352 -0.53647572 1.622 2172192
-0.044153545 -0.53680646 1.623 2040606
-0.036523074 -0.53713721 1.6240001 1974813
-0.025036555 -0.53713721 1.6240001 2237983
-0.013550036 -0.53713721 1.6240001 2369571
-0.0058887275 -0.53680646 1.623 2368801
0.0055843722 -0.53631032 1.6215 2303006
0.017038612 -0.53581423 1.6200001 2369569
-0.51114178 -0.5254854 1.6235001 1316887
0.043870226 -0.52548766 1.6235001 2172449
0.055232704 -0.52053666 1.6200001 2106399
-0.51161402 -0.51448083 1.6250001 1778466
0.055437267 -0.51479745 1.626 2040606
0.062987946 -0.51384759 1.623 1974813
-0.5103547 -0.50557089 1.6210001 2237732
-0.50457191 -0.50744224 1.6270001 1909537
-0.4898296 -0.50038469 1.6290001 1448986
-0.50240105 -0.49762017 1.6200001 2237732
-0.49628925 -0.49915603 1.6250001 2040353
-0.48037246 -0.49088868 1.623 1843744
-0.47359329 -0.49179608 1.626 2172709
-0.4664993 -0.49240097 1.628 1712158
-0.48712337 -0.48998135 1.6200001 1908767
-0.44592708 -0.48323572 1.6230001 4606281
-0.42837957 -0.47734094 1.6290001 5396568
-0.4159632 -0.46481943 1.6255001 4475724
-0.40409166 -0.45290279 1.6240001 3949122
-0.39594576 -0.44469678 1.6220001 3883842
0.82828432 -0.44497094 1.623 14077394
0.83851254 -0.44634175 1.628 13683408
-0.38111863 -0.43758741 1.6240001 5724763
-0.37461078 -0.43893465 1.6290001 6186084
-0.35496658 -0.43072394 1.6270001 4146500
-0.19379985 -0.43059158 1.6265001 5265495
0.80383688 -0.43650964 1.6200001 13815505
0.81498206 -0.43839577 1.6270001 13880785
-0.36535278 -0.42940027 1.6220001 4738638
-0.34612191 -0.42162198 1.6215 3883328
-0.33599812 -0.4233121 1.628 4212555
-0.26625344 -0.42227206 1.6240001 2303778
-0.25078356 -0.42966497 1.623 4276798
-0.21225686 -0.42913553 1.6210001 2830641
-0.20486578 -0.42966497 1.623 3028535
-0.18179482 -0.42175201 1.6220001 5989218
-0.17489812 -0.42357215 1.6290001 5594460
0.79718101 -0.42940027 1.6220001 13420747
-0.32388064 -0.41486967 1.625 4805717
-0.28208894 -0.41538027 1.6270001 2370088
-0.27340513 -0.41384843 1.6210001 1909539
-0.1740392 -0.41384843 1.6210001 6252392
-0.16721687 -0.41589087 1.6290001 5989218
0.44700903 -0.41563556 1.628 12500672
0.79245335 -0.41563556 1.628 13420747
-0.3116228 -0.40620494 1.6210001 4016461
-0.30435431 -0.40670612 1.623 4410706
-0.29670134 -0.40670612 1.623 2502189
-0.28869221 -0.40620494 1.6210001 2764848
-0.16649832 -0.40645555 1.6220001 6120804
0.78236651 -0.40670612 1.623 13091269
-0.15645601 -0.39411354 1.6236668 6383719
0.77471358 -0.39140019 1.623 12828610
-0.15138826 -0.38398367 1.6240001 6581355
-0.15120183 -0.37586254 1.6220001 6384748
-0.14399609 -0.37702116 1.6270001 6844525
-0.3116228 -0.36034372 1.6210001 5134944
-0.30407304 -0.36427429 1.6215 4609372
-0.29633576 -0.36416316 1.6210001 4675422
-0.28869221 -0.36034372 1.6210001 1713706
-0.15101539 -0.36776027 1.6200001 6253162
-0.14381908 -0.36506647 1.625 6647661
-0.13640806 -0.36189982 1.628 7567216
-0.31553835 -0.35280898 1.6215 5529445
-0.3047294 -0.35357055 1.6250001 4674653
-0.29706699 -0.35357055 1.6250001 4478044
-0.28496182 -0.35280898 1.6215 2306612
-0.14355357 -0.35291779 1.6220001 6449771
-0.13624048 -0.35378811 1.626 7238770
-0.3157329 -0.34537596 1.6225001 5660773
-0.30491689 -0.34612098 1.626 5134690
-0.2974326 -0.34633386 1.6270001 4543837
-0.28557575 -0.34590811 1.625 2833984
-0.27323648 -0.3448438 1.6200001 1384739
-0.14337656 -0.3448438 1.6200001 6383463
-0.1360729 -0.34569526 1.6240001 7040623
-0.1287315 -0.34654671 1.628 7237735
-0.31474736 -0.33548188 1.6240001 5924198
-0.30529195 -0.3388702 1.628 5463394
-0.29395759 -0.33907837 1.6290001 3622734
-0.28208894 -0.33866206 1.6270001 2899777
-0.27424848 -0.33461565 1.626 2307381
-0.26625344 -0.3303799 1.6240001 1516066
-0.13590533 -0.3376213 1.6220001 6581355
-0.12601452 -0.33334246 1.626 7303270
-0.31716859 -0.32513759 1.6233335 5791842
-0.25859576 -0.32272223 1.6240001 1581859
-0.13573775 -0.32956618 1.6200001 6253160
-0.12458166 -0.32272223 1.6240001 7303272
-0.11344808 -0.32371584 1.6290001 8551785
-0.31641048 -0.31545255 1.626 5792357
-0.25093809 -0.31506455 1.6240001 1712675
-0.12068319 -0.31487054 1.623 8027244
-0.11330879 -0.31564656 1.6270001 7630685
-0.32015264 -0.30385727 1.6255001 5266526
-0.24358001 -0.30394483 1.626 1646881
-0.12053447 -0.30683902 1.6210001 7238505
-0.11316951 -0.30759618 1.6250001 8354924
-0.10563697 -0.30414116 1.6270001 7960420
-0.098085567 -0.30067205 1.6290001 8617065
-0.32044807 -0.29263109 1.6270001 4806491
-0.23562273 -0.29591328 1.6240001 1646880
-0.22740357 -0.29137209 1.6200001 2173222
-0.11289093 -0.29537606 1.6210001 7105375
-0.10544219 -0.29209152 1.6240001 8420717
-0.097965144 -0.29263109 1.6270001 9012336
-0.32044807 -0.28495926 1.6270001 4609110
-0.22796504 -0.28443381 1.6240001 1712673
-0.10531233 -0.28408355 1.6220001 7565923
-0.094154619 -0.28504682 1.6275001 8025955
-0.32025111 -0.27711701 1.626 4412503
-0.21990041 -0.27626488 1.6210001 1910052
-0.094008803 -0.2769466 1.625 8157541
-0.31641048 -0.26560926 1.626 4806236
-0.22064653 -0.2656945 1.6265001 1646882
-0.21212594 -0.26081681 1.6200001 1909541
-0.09386535 -0.26886991 1.6225001 8485739
-0.085016996 -0.26401806 1.6240001 8946029
-0.074949667 -0.26194379 1.6270001 8419686
-0.067360543 -0.26226577 1.6290001 9143922
0.017133269 -0.26226577 1.6290001 8355437
0.024814526 -0.26226577 1.6290001 8290164
0.032495782 -0.26226577 1.6290001 6184536
0.086158656 -0.26194379 1.6270001 5790807
-0.31200728 -0.25364685 1.623 4739671
-0.21238782 -0.25349057 1.6220001 1646882
-0.082266025 -0.253178 1.6200001 9078129
-0.074765399 -0.25364685 1.623 9143920
-0.06719514 -0.25395942 1.6250001 8288100
-0.055751786 -0.25419384 1.6265001 9012337
-0.044262368 -0.25427198 1.6270001 8024930
-0.036613028 -0.25442824 1.628 9275510
-0.025082804 -0.25427198 1.6270001 9209972
-0.013575066 -0.25427198 1.6270001 8024928
-0.0059032412 -0.25427198 1.6270001 9012336
0.0056044972 -0.25427198 1.6270001 9012849
0.017101716 -0.2541157 1.626 8750449
0.024753595 -0.25395942 1.6250001 8356209
0.032435935 -0.2541157 1.626 8355959
0.04396598 -0.25427198 1.6270001 5002835
0.074646212 -0.25427198 1.6270001 5594197
-0.3047294 -0.24629702 1.6250001 4937561
-0.2126497 -0.24614544 1.6240001 1581089
-0.055580392 -0.24576652 1.6215 9143922
-0.044153545 -0.24599387 1.623 8683371
-0.036500581 -0.24599387 1.623 8814957
-0.025036555 -0.24614544 1.6240001 9275508
-0.013550036 -0.24614544 1.6240001 9078129
-0.0058887275 -0.24599387 1.623 8024928
0.0055878172 -0.2459181 1.6225001 9078129
0.017049128 -0.24569073 1.6210001 8749934
0.024692662 -0.24569073 1.6210001 8552303
0.032336194 -0.24569073 1.6210001 8290162
0.043884918 -0.24614544 1.6240001 5527894
0.055437267 -0.24644858 1.626 4872271
0.063143186 -0.24660015 1.6270001 5924957
0.07068444 -0.24614544 1.6240001 4608068
-0.29688418 -0.23848777 1.6240001 4346192
-0.28869221 -0.23040366 1.6210001 4278089
-0.21251875 -0.23451678 1.6230001 2041124
-0.02115548 -0.23790036 1.6200001 9143922
-0.013516662 -0.23790036 1.6200001 9275508
0.047623262 -0.2380472 1.6210001 3948601
0.055300891 -0.23437229 1.622 3687229
0.062987953 -0.23451678 1.6230001 5004113
0.070553862 -0.2380472 1.6210001 5661785
-0.27357382 -0.22289757 1.6220001 6385007
-0.26707318 -0.22385952 1.6290001 5464419
-0.22448714 -0.22351596 1.6265001 1387820
-0.25047451 -0.21511661 1.6210001 5201249
-0.24298081 -0.21524931 1.6220001 5135458
-0.23518747 -0.21511661 1.6210001 1319460
-0.4950676 -0.15396833 1.6210001 1317653
-0.48434693 -0.1542058 1.6235001 1251603
-0.47301078 -0.15425329 1.6240001 1382676
-0.46478003 -0.15406333 1.6220001 1382676
-0.45656812 -0.15387335 1.6200001 1448469
-0.59663379 -0.14686643 1.6270001 1119502
-0.26690924 -0.14695668 1.628 1382676
-0.25492615 -0.14668588 1.625 1316883
-0.24298081 -0.14641508 1.6220001 1316883
-0.62462211 -0.1309569 1.6200001 987916
-0.61698329 -0.13859572 1.6200001 857100
-0.19769888 -0.13919459 1.6270001 1185297
-0.1856797 -0.13880959 1.6225001 1119504
-0.051742665 -0.13868126 1.6210001 1251860
-0.044153545 -0.13885237 1.623 1383446
-0.036568049 -0.13910903 1.626 1317653
-0.028936489 -0.13928014 1.628 1448469
0.032495782 -0.13936569 1.6290001 1448469
0.040053722 -0.13893794 1.6240001 1514262
-0.63382208 -0.1159649 1.6240001 987916
-0.63989973 -0.10040163 1.6200001 922893
-0.64187473 -0.093049116 1.6250001 1053709
-0.64345473 -0.085596904 1.6290001 1054479
-0.64793825 0.014189393 1.6210001 1316881
-0.64933729 0.025711264 1.6245 1251601
-0.021220775 0.029549196 1.6250001 3880207
-0.013516662 0.029458277 1.6200001 3682060
-0.0058814711 0.02947646 1.6210001 3616013
0.0017707582 0.029621933 1.6290001 3287822
-0.64953715 0.037211593 1.6250001 1316881
-0.64913738 0.044846371 1.6240001 1119756
-0.028954264 0.044984445 1.6290001 2367245
-0.64833796 0.052439388 1.6220001 1448721
-0.021220773 0.064034685 1.625 2039053
0.001764236 0.063955881 1.6230001 4013099
0.0017685841 0.075616516 1.6270001 4276273
-0.64266473 0.083288342 1.6270001 1382928
-0.02125995 0.083339527 1.628 1710092
0.0017664102 0.083185963 1.6250001 5000766
-0.64108467 0.090736538 1.623 1448467
-0.021194655 0.090736538 1.623 1776655
0.0094288057 0.09851075 1.6250001 1775889
-0.63382208 0.1061078 1.6240001 1448721
-0.62270933 0.11383553 1.625 1579537
-0.036478095 0.11362538 1.6220001 1316111
0.017049128 0.11355532 1.6210001 1513487
-0.60207707 0.12119886 1.6210001 2895143
-0.59590036 0.12149794 1.6250001 2765099
-0.57185555 0.12892187 1.6220001 1975833
-0.56629431 0.12939876 1.628 1646868
-0.31239176 0.12916033 1.6250001 1908248
-0.30397928 0.12884238 1.6210001 1974041
-0.28495476 0.12888214 1.6215 2632225
-0.27441713 0.1293193 1.6270001 4081211
-0.044126343 0.12127363 1.6220001 1184525
0.024799293 0.12172223 1.628 1316365
-0.54541564 0.13665432 1.6230001 1711378
-0.47446707 0.13715951 1.6290001 2107419
-0.46535313 0.13673852 1.6240001 1910551
-0.4571318 0.13657013 1.6220001 2107930
-0.4452461 0.13644382 1.6205001 2896165
-0.43445468 0.13665432 1.623 2239007
-0.42401534 0.13699111 1.6270001 2041627
-0.34367463 0.13707532 1.628 4411205
-0.3347598 0.13657013 1.6220001 4476228
-0.26625344 0.13673852 1.6240001 2237210
-0.067112438 0.13665432 1.623 1250061
0.032396041 0.13673852 1.6240001 1316111
-0.51448894 0.14421837 1.6220001 1447692
-0.50426173 0.14457402 1.626 1579278
-0.49659464 0.14457402 1.626 1381899
-0.48832613 0.1443962 1.6240001 1316106
-0.47978052 0.14412946 1.6210001 1515282
-0.25811806 0.14412946 1.6210001 2566178
-0.090182327 0.14448512 1.6250001 2829604
0.040152375 0.14475185 1.628 1316111
-0.24343023 0.15214752 1.6250001 1710612
-0.22392331 0.15956405 1.6225002 2104854
-0.158948 0.15961321 1.623 2170645
-0.12090626 0.15224114 1.626 1645073
-0.11282129 0.15167937 1.6200001 1973268
0.047770157 0.15224114 1.626 1250318
0.062987946 0.15961321 1.623 1184525
-0.16701157 0.1600066 1.6270001 2104852
-1.0268867 0.31363574 1.628 6842198
-1.0876305 0.53592604 1.6270001 5265215
-1.0966488 0.54426605 1.6290001 5067584
-1.1406319 0.55859798 1.626 4936252
-1.1225294 0.5572238 1.6220001 4871740
-1.1113286 0.5516085 1.628 4672056
-1.1252977 0.56626511 1.626 5593153
-1.1336486 0.57616317 1.6215 5658686
-1.1413333 0.58962882 1.6270001 5592635
-1.1461803 0.59583211 1.623 5722936
-1.1490052 0.60497248 1.6270001 5328178
-1.0345633 0.6053443 1.628 6051649
-0.29118553 -0.66412824 1.6350001 3881781
0.10991225 -0.66534686 1.6380001 5062207
0.11749232 -0.66453445 1.636 4997698
0.12505351 -0.66372204 1.6340001 7696754
0.13275835 -0.66372204 1.6340001 6381145
0.14037722 -0.66331589 1.6330001 7434603
-0.29082936 -0.65561575 1.6330001 5395022
-0.2841695 -0.65802461 1.6390001 4803140
-0.16051495 -0.65029621 1.6390001 4013373
-0.15278655 -0.65029621 1.6390001 4143419
-0.14505814 -0.65029621 1.6390001 9209480
0.10604805 -0.65762317 1.638 5788242
0.1174205 -0.65641868 1.6350001 4670016
0.12505351 -0.65601718 1.6340001 7499628
0.13267711 -0.65561575 1.6330001 6644317
0.14037722 -0.65561575 1.6330001 7894638
-0.29029506 -0.64672536 1.6300001 5724242
-0.283476 -0.64870918 1.6350001 7237224
-0.27559778 -0.6406076 1.6340001 5000519
-0.26468453 -0.64217579 1.638 5132106
-0.19517601 -0.64217579 1.638 6710886
-0.18313979 -0.6406076 1.6340001 6580070
-0.12142677 -0.64021558 1.6330001 4537399
-0.11386593 -0.64099967 1.6350001 5460566
-0.10622131 -0.64139169 1.636 6909037
-0.098627478 -0.64217579 1.6380001 5793384
0.094522536 -0.64256781 1.6390001 3488569
0.10595094 -0.64544719 1.6365001 5724251
0.11731277 -0.64426398 1.6335001 4867913
0.12497699 -0.64791566 1.6330001 7566191
0.13267711 -0.64791566 1.6330001 6380116
0.14029126 -0.64751887 1.6320001 7894125
0.49549121 -0.64139169 1.636 13616845
-0.25578544 -0.63154709 1.6305001 2829348
-0.24432904 -0.63174075 1.631 2565923
-0.23663834 -0.63174075 1.631 3287593
-0.22510232 -0.63174075 1.631 4342589
-0.21343535 -0.63135344 1.6300001 3158066
-0.17522022 -0.6398235 1.6320001 6118749
-0.12896873 -0.63943142 1.631 4406326
-0.094386041 -0.6319344 1.6315001 4148048
-0.083027743 -0.63329011 1.6350001 7502207
-0.075456396 -0.6344521 1.6380001 7699586
0.086794123 -0.63483942 1.6390001 3618617
0.094349518 -0.63367742 1.636 3815996
0.10572433 -0.63251543 1.6330001 4936279
0.11713323 -0.63174075 1.631 4473928
0.12482391 -0.63558847 1.631 8486265
0.13255523 -0.63578212 1.6315 6577754
0.14020528 -0.63943142 1.631 7828845
0.47859547 -0.63174075 1.631 14603740
0.48747879 -0.63329011 1.6350001 14208982
1.0052466 -0.63406473 1.6370001 13752277
-0.055939134 -0.62443268 1.6320001 4808815
-0.044480007 -0.62558055 1.6350001 5396833
-0.036815438 -0.62634575 1.6370001 9868946
-0.029132007 -0.62711102 1.6390001 10065040
0.079017483 -0.62672842 1.6380001 4275518
0.086582303 -0.62558055 1.6350001 3881789
0.094118841 -0.62443268 1.6320001 3422010
0.10168947 -0.62366742 1.6300001 5857634
1.0046326 -0.62596315 1.636 13489109
-0.013600097 -0.61598146 1.6300001 8815488
-0.0059213825 -0.61673725 1.6320001 9210246
0.0056344117 -0.61787093 1.635 8947073
0.017227929 -0.61900473 1.6380001 9670795
0.024966855 -0.61938256 1.6390001 6708829
0.063570097 -0.61900473 1.6380001 6774611
0.074945629 -0.61730409 1.6335001 4538172
0.032515731 -0.6082955 1.6300001 5856869
0.044098727 -0.60904187 1.6320001 7894123
0.055641834 -0.60904187 1.6320001 6642773
0.063259616 -0.6082955 1.6300001 7234912
0.92635608 -0.55585438 1.6340001 13422546
-0.46023196 -0.54011399 1.6330001 1316630
-0.45308605 -0.54077548 1.6350001 1316630
-0.4459213 -0.54143697 1.6370001 1382674
-0.43847001 -0.54176772 1.6380001 1382674
-0.36123309 -0.54176772 1.6380001 1383446
-0.35329354 -0.54143697 1.6370001 1317651
-0.34536347 -0.54110622 1.636 1317651
-0.33723643 -0.54044473 1.6340001 1449237
-0.32932994 -0.54011399 1.6330001 1449239
-0.49472737 -0.53225082 1.6325001 1120274
-0.48451617 -0.53371799 1.6370001 1186067
-0.46735895 -0.53945249 1.631 1054481
-0.3212359 -0.53945249 1.631 1383446
-0.24417925 -0.53912175 1.6300001 1317653
-0.23663834 -0.53945249 1.631 1515032
-0.22524033 -0.53978324 1.6320001 1645848
-0.21369724 -0.53978324 1.6320001 1908250
-0.20587559 -0.53945249 1.631 1710871
-0.19806342 -0.53912175 1.6300001 1645848
-0.16428122 -0.53404403 1.638 1842455
-0.15241368 -0.53306592 1.6350001 1513490
-0.14452712 -0.5324139 1.6330001 1710869
-0.13665943 -0.53176177 1.631 1710869
-0.12504669 -0.53143579 1.6300001 1776919
-0.11351772 -0.53143579 1.6300001 1843227
-0.10583175 -0.53143579 1.6300001 1645848
-0.094446257 -0.53225088 1.6325002 1711639
-0.08297696 -0.53273988 1.6340001 1909018
-0.075364262 -0.53339195 1.636 1843225
-0.063850179 -0.53388101 1.6375 1909018
-0.052317232 -0.53437006 1.6390001 2039834
-0.01367519 -0.53437006 1.6390001 2105376
-0.0059467806 -0.53437006 1.6390001 2105629
0.0056365859 -0.53371799 1.6370001 2040349
0.017196376 -0.53306592 1.6350001 2040606
0.024875458 -0.5324139 1.6330001 1975583
0.032515731 -0.53143579 1.6300001 2172962
-0.50581235 -0.52407116 1.631 1251607
-0.49964872 -0.52567774 1.636 1185814
0.04032502 -0.52535641 1.6350001 1909020
-0.50581235 -0.51638043 1.631 1383193
-0.49594194 -0.51426232 1.6365001 1251607
0.047917053 -0.51638043 1.631 2040606
0.0636089 -0.51118487 1.6390001 2040606
-0.49842709 -0.50900167 1.6320001 1383193
-0.48362824 -0.50192058 1.6340001 1317400
-0.47679719 -0.50284213 1.6370001 1317913
0.0636089 -0.50345641 1.6390001 1909020
-0.45665663 -0.49421573 1.6340001 2106403
-0.43766695 -0.48680866 1.6350001 3816766
-0.39960742 -0.45652825 1.6370001 3291192
-0.39045209 -0.44716424 1.631 5068116
-0.38463882 -0.44935757 1.6390001 5725533
-0.36453182 -0.44068611 1.6355002 3619898
-0.24507806 -0.44082081 1.636 4802889
-0.23707362 -0.44028193 1.6340001 6053728
-0.22558421 -0.44041663 1.6345 3883074
-0.21435195 -0.44109029 1.6370001 3158834
-0.2067592 -0.44135973 1.6380001 5001808
-0.19915701 -0.44162917 1.6390001 5133907
0.82568765 -0.44001248 1.6330001 13946578
0.84722871 -0.44689012 1.6300001 13222857
-0.34494126 -0.43257707 1.6340001 3949124
-0.2687127 -0.43390074 1.6390001 1777181
-0.25955117 -0.43151814 1.6300001 2303525
-0.18291563 -0.43204761 1.6320001 5528154
0.81028742 -0.43231237 1.6330001 13683406
-0.32953161 -0.42487225 1.6340001 5593949
-0.27542913 -0.42461222 1.6330001 2171422
-0.16814072 -0.42591232 1.6380001 6054498
0.45636132 -0.42487225 1.6340001 12763842
0.80307877 -0.42487225 1.6340001 13486540
-0.31335297 -0.41614619 1.6300001 4409934
-0.30622959 -0.41691211 1.6330001 3817538
-0.2945013 -0.41665679 1.6320001 2304297
-0.16041704 -0.41818863 1.6380001 6318183
-0.15278655 -0.41071555 1.6390001 6909288
0.79732102 -0.41046497 1.6380001 13222855
-0.15588379 -0.40486315 1.631 6383719
-0.14505814 -0.40298715 1.6390001 7500130
0.78574091 -0.4007743 1.6300001 12895173
-0.14452712 -0.39381179 1.6330001 6974302
-0.13724595 -0.39501759 1.6380001 8090982
0.78863317 -0.39453524 1.636 12697024
-0.1442616 -0.38540232 1.6300001 6646114
-0.1369108 -0.3863481 1.6340001 8090984
-0.12952225 -0.38729388 1.6380001 8354154
-0.13665943 -0.3741051 1.631 6777182
-0.1254279 -0.37502259 1.6350001 8156772
-0.11404004 -0.37559485 1.6375 7564124
-0.10635117 -0.3757107 1.638 8353895
-0.094765633 -0.3718465 1.6380001 8485993
-0.083180092 -0.3718465 1.6380001 8946028
-0.075502463 -0.3720735 1.6390001 7892828
-0.12527446 -0.3630113 1.6330001 7564637
-0.11386593 -0.36345592 1.6350001 8617065
-0.10622131 -0.36367819 1.636 7695963
-0.094707772 -0.36390048 1.6370001 8354152
-0.083129309 -0.36390048 1.6370001 8880750
-0.075410329 -0.36390048 1.6370001 8024926
-0.063889168 -0.36423394 1.6385001 8419945
-0.12515822 -0.35498482 1.6315001 7894630
-0.11379629 -0.35552877 1.6340001 7630170
-0.10615639 -0.35574636 1.6350001 8682858
-0.094649911 -0.35596392 1.636 8419942
-0.083078526 -0.35596392 1.636 7696478
-0.075364262 -0.35596392 1.636 8946030
-0.067649998 -0.35596392 1.636 7696476
-0.056128845 -0.35629031 1.6375 8486764
-0.044588827 -0.35661668 1.6390001 8617326
-0.12127805 -0.34718531 1.631 7433304
-0.11372665 -0.34761107 1.6330001 8289385
-0.10609146 -0.34397152 1.6340001 8354407
-0.094577007 -0.34412998 1.6347501 8222563
-0.083027743 -0.34418201 1.6350001 8749166
-0.075318195 -0.34418201 1.6350001 8157029
-0.067608647 -0.34418201 1.6350001 8749163
-0.056077421 -0.3443937 1.6360002 8157028
-0.044534415 -0.34460539 1.6370001 8090980
-0.036849171 -0.34491998 1.6385001 8485997
-0.029132007 -0.34115985 1.6390001 8486510
-0.30566701 -0.33160055 1.6300001 5398114
-0.29458803 -0.33210912 1.6325002 3490379
-0.28295583 -0.33200741 1.6320001 2965570
-0.1212037 -0.33928651 1.6300001 8025441
-0.11362218 -0.33575338 1.6315 7696476
-0.10596161 -0.33200741 1.6320001 8551787
-0.094534211 -0.33241427 1.6340001 8222309
-0.083027743 -0.33261773 1.6350001 8486764
-0.075318195 -0.33261773 1.6350001 8946032
-0.067608647 -0.33261773 1.6350001 9143922
-0.056044325 -0.33261773 1.6350001 8222305
-0.044507209 -0.33282113 1.636 8814959
-0.036792945 -0.33282113 1.636 7235673
-0.025258917 -0.33332974 1.6385001 8223852
-0.30604208 -0.324312 1.6320001 5266530
-0.29539886 -0.32530558 1.6370001 3227206
-0.28382275 -0.32530561 1.6370001 2307640
-0.27559778 -0.32470945 1.6340001 2572095
-0.26723716 -0.32391456 1.6300001 2042669
-0.10589667 -0.32411328 1.631 7827547
-0.094504103 -0.32461008 1.6335001 8091749
-0.08297696 -0.32470945 1.6340001 7959648
-0.075272128 -0.32470945 1.6340001 8880750
-0.067567296 -0.32470945 1.6340001 7630170
-0.056010045 -0.32470945 1.6340001 8222305
-0.044480007 -0.32490817 1.6350001 8485479
-0.036770459 -0.32490817 1.6350001 8617580
-0.025228083 -0.32520622 1.6365001 7959652
-0.01367519 -0.32570302 1.6390001 7763820
-0.30707347 -0.31381941 1.6375 5069149
-0.26460493 -0.31382179 1.6375 2304297
-0.25955117 -0.31622857 1.6300001 1516066
-0.10583175 -0.31622857 1.6300001 8419684
-0.094446257 -0.3167136 1.6325002 8354148
-0.08297696 -0.31700459 1.6340001 8420199
-0.075272128 -0.31700459 1.6340001 8683371
-0.067567296 -0.31700459 1.6340001 8946545
-0.056010045 -0.31700459 1.6340001 8945514
-0.044452801 -0.31700459 1.6340001 7892828
-0.03674797 -0.31700459 1.6340001 8880237
-0.025212666 -0.31729561 1.6355001 8288616
-0.013658502 -0.3175866 1.6370001 7960679
-0.0059431526 -0.31778061 1.6380001 8027251
0.0043574027 -0.31275925 1.6386667 6514786
-0.31392968 -0.30525807 1.6330001 5660771
-0.25248328 -0.30543792 1.6340001 1844002
-0.093077295 -0.30616835 1.631 8485479
-0.082926184 -0.30526042 1.6330001 8420199
-0.075272128 -0.30544734 1.6340001 8354405
-0.067567296 -0.30544734 1.6340001 8552298
-0.056002066 -0.30540121 1.63375 8552042
-0.044425599 -0.30526042 1.6330001 8353891
-0.036736727 -0.30535507 1.6335001 8156257
-0.025189541 -0.30544853 1.6340001 8551528
-0.013645987 -0.30572891 1.6355001 8486764
-0.0059358962 -0.30582356 1.6360002 8289902
0.0056384001 -0.30205637 1.6365001 8027248
0.017227929 -0.30233324 1.6380001 4738640
0.024966855 -0.3025178 1.6390001 5266263
-0.31450641 -0.2942498 1.636 5068634
-0.24522786 -0.29442969 1.6370001 1844259
-0.090459809 -0.29317066 1.6300001 8090719
-0.082875401 -0.29353037 1.6320001 8814955
-0.075226068 -0.29371026 1.6330001 8617578
-0.067525946 -0.29371026 1.6330001 7893855
-0.055975772 -0.29371026 1.6330001 8288870
-0.044425599 -0.29371026 1.6330001 8946543
-0.03672548 -0.29371026 1.6330001 8551272
-0.025175303 -0.29371026 1.6330001 8354148
-0.013633471 -0.29389009 1.6340001 7499615
-0.0059322678 -0.29406998 1.6350001 8486764
0.0056349551 -0.29415989 1.6355001 8224111
0.017217411 -0.29442969 1.6370001 6119519
0.024936389 -0.29442969 1.6370001 4740434
0.032675318 -0.29460955 1.6380001 5529686
0.040423673 -0.2947894 1.6390001 6450788
-0.31469867 -0.28671071 1.6370001 5003608
-0.23707362 -0.28618526 1.6340001 1713443
-0.082824618 -0.28565982 1.631 8354406
-0.075179994 -0.28583497 1.6320001 7893857
-0.067525946 -0.28601012 1.6330001 8748651
-0.055975772 -0.28601012 1.6330001 8420199
-0.044425599 -0.28601012 1.6330001 8156514
-0.03672548 -0.28601012 1.6330001 9078129
-0.025175303 -0.28601012 1.6330001 8354148
-0.013625128 -0.28601012 1.6330001 8485740
-0.0059286389 -0.28618526 1.6340001 8684143
0.0056315111 -0.28627282 1.6345 8420975
0.017196376 -0.28636041 1.6350001 8290166
0.024905924 -0.28636041 1.6350001 4410958
0.032635421 -0.28653553 1.636 5201236
0.044248529 -0.2867983 1.6375 6581604
0.086794123 -0.28706098 1.6390001 2566697
0.094522536 -0.28706098 1.6390001 2370341
-0.31431419 -0.27479845 1.635 5069145
-0.22915822 -0.27437001 1.6325002 1646881
-0.082773834 -0.27779874 1.6300001 8617063
-0.075110897 -0.27404094 1.6305001 8617578
-0.06746392 -0.27420902 1.6315 8354150
-0.055958629 -0.27437711 1.6325002 8683372
-0.044411995 -0.27437711 1.6325002 8880750
-0.036702991 -0.27429187 1.6320001 9012079
-0.025159886 -0.27429187 1.6320001 8288613
-0.013620956 -0.27437711 1.6325002 8749936
-0.0059231967 -0.27437711 1.6325002 8552045
0.0056248931 -0.2744197 1.63275 8618352
0.017175339 -0.27446231 1.6330001 8290161
0.024875458 -0.27446231 1.6330001 7500655
0.032575577 -0.27446231 1.6330001 5134420
0.044161297 -0.27467299 1.6342502 5924445
0.05579526 -0.27505174 1.6365001 5990237
0.063570097 -0.27530265 1.638 6055260
0.075085625 -0.27118987 1.6365001 5593687
0.086661734 -0.2750541 1.6365001 4671301
0.094234176 -0.27848044 1.6340001 2566697
-0.23007064 -0.26387575 1.6390001 1976617
-0.05587294 -0.26242679 1.6300001 8486248
-0.044343982 -0.26242679 1.6300001 9011823
-0.036658011 -0.26242679 1.6300001 8815727
-0.025129054 -0.26242679 1.6300001 9012079
-0.013600097 -0.26242679 1.6300001 8026211
-0.0059141261 -0.26242679 1.6300001 8947313
0.0056148311 -0.26242679 1.6300001 8552043
0.044059377 -0.26250729 1.6305001 4937554
0.055675931 -0.26290977 1.6330001 6517348
0.063414857 -0.26307076 1.6340001 5792858
0.074877977 -0.26274878 1.6320001 5659220
-0.30641711 -0.25536597 1.6340001 4608337
-0.22125699 -0.25489712 1.631 1778468
0.055573646 -0.25474083 1.6300001 6384995
0.063259616 -0.25474083 1.6300001 6122590
-0.29522312 -0.24410948 1.6360002 5002583
-0.22152831 -0.24750955 1.6330001 1975332
-0.28260908 -0.2316829 1.6300001 6319216
-0.2764411 -0.23296212 1.6390001 5595493
-0.22410131 -0.23467444 1.633 2043437
-0.2601881 -0.22454663 1.6340001 5201251
-0.2527923 -0.22482146 1.636 2766392
-0.24507806 -0.22482146 1.636 1582118
-0.23707362 -0.22454663 1.6340001 1254437
-0.59077191 -0.14731777 1.6320001 1185295
-0.58414841 -0.14758857 1.6350001 1119502
-0.5736323 -0.14785936 1.638 1053709
-0.56239223 -0.14794964 1.6390001 987916
-0.55466384 -0.14794964 1.6390001 1185297
-0.54660171 -0.14785938 1.6380001 1185297
-0.5351783 -0.14790452 1.6385001 922638
-0.43100926 -0.14794964 1.6390001 1119504
-0.42276433 -0.14776911 1.6370001 1316883
-0.41453829 -0.14758857 1.6350001 1185297
-0.40657991 -0.14749829 1.6340001 1185297
-0.394903 -0.14745316 1.6335001 1119504
-0.38323078 -0.14740804 1.6330001 1185297
-0.37553063 -0.14740804 1.6330001 1185297
-0.36398047 -0.14740804 1.6330001 1119504
-0.35264608 -0.14749829 1.6340001 1316883
-0.34494126 -0.14749829 1.6340001 1316883
-0.33744285 -0.14758857 1.6350001 1185297
-0.3258785 -0.14758857 1.6350001 1119504
-0.31431419 -0.14758857 1.6350001 1185297
-0.30660465 -0.14758857 1.6350001 1185297
-0.29477084 -0.14745316 1.6335001 1251090
-0.28278247 -0.1472275 1.631 1185044
-0.27492312 -0.14713722 1.6300001 1382423
-0.22207093 -0.14005011 1.6370001 987918
0.0056418451 -0.14009289 1.6375 1448469
0.017217411 -0.14005011 1.6370001 1448469
-0.62383866 -0.13241199 1.6380001 1053709
-0.61461037 -0.13979346 1.6340001 791307
-0.21382819 -0.13970791 1.6330001 1119504
-0.20574938 -0.13945125 1.6300001 1053711
-0.13732973 -0.13249283 1.6390001 1119504
-0.1255465 -0.13229072 1.6365001 1053711
-0.11386593 -0.13216947 1.6350001 1119504
-0.10609146 -0.13208863 1.6340001 1119504
-0.094534211 -0.13208863 1.6340001 1119504
-0.083027743 -0.13216947 1.6350001 1185297
-0.075364262 -0.13225031 1.636 1119504
-0.06777405 -0.13249283 1.6390001 1185297
-0.021286068 -0.13945125 1.6300001 1448469
-0.013625128 -0.13970791 1.6330001 1448469
-0.0059358957 -0.13996457 1.636 1448469
0.024890691 -0.13979346 1.6340001 1514262
-0.62963456 -0.12430768 1.6330001 987916
-0.63733464 -0.10890744 1.6330001 987916
-0.6452322 -0.074276119 1.6335001 922894
-0.64700973 -0.06289874 1.6380001 988688
-0.64740467 -0.055208724 1.6390001 1054479
-0.64740467 -0.0049740663 1.6390001 1185295
-0.029096458 0.029767405 1.6370001 2498566
-0.01367519 0.022075364 1.6390001 4341020
-0.028972039 0.03732609 1.6300001 2432521
0.0094810259 0.037417687 1.6340001 3025175
0.0094636185 0.045039672 1.631 2959898
-0.029025363 0.052795019 1.6330001 1776137
0.0094810259 0.052827347 1.6340001 2169614
-0.64582473 0.064419284 1.6350001 1251087
-0.029132007 0.060717408 1.6390001 1776139
0.0095042353 0.060680363 1.6380001 1577993
-0.64384973 0.075755946 1.6300001 1448721
