# .PCD v0.7 - Point Cloud Data file format
VERSION 0.7
FIELDS x y z rgb
SIZE 4 4 4 4
TYPE F F F U
COUNT 1 1 1 1
WIDTH 1197
HEIGHT 1
VIEWPOINT 0 0 0 1 0 0 0
POINTS 1197
DATA ascii
0.10408603 -0.12519093 0.91100007 7370349
0.10408603 -0.11445178 0.91100007 7304813
0.10408603 -0.10586047 0.91100007 7370348
0.10408603 -0.095121324 0.91100007 6383969
0.1004476 -0.033050567 0.91700006 4937294
0.09989991 -0.022119427 0.91200006 5068367
0.1004476 -0.026564645 0.91700006 5068367
-0.67490619 0.19311067 0.91300005 6055503
-0.6641435 0.19741574 0.91300005 5924433
-0.67638463 0.33374608 0.91500008 4672047
-0.67207009 0.34022728 0.91500002 4014625
-0.67721158 0.1993618 0.92200005 6055762
-0.67577004 0.20610638 0.92300004 6252371
-0.66706556 0.21481088 0.92300004 5923148
-0.66706556 0.22133923 0.92300004 5792078
-0.68233049 0.33340383 0.92600006 4672561
-0.67574257 0.33774835 0.92000002 4014371
-0.6755209 0.2058451 0.93166667 6120529
-0.66993195 0.20547688 0.93000007 6186836
-0.6793927 0.21144173 0.93700004 6515802
-0.69338661 0.31781867 0.93800002 3948587
-0.69116896 0.32341307 0.93500006 5067578
-0.68747288 0.32826379 0.93000007 5200192
-0.68602186 0.33479357 0.93600005 4936761
-0.68016201 0.34215376 0.93200004 4737324
0.068154164 -0.19306068 0.94900006 2041636
-0.69930035 0.30714718 0.94600004 5332291
-0.69559425 0.31358564 0.94300002 4147248
-0.69263619 0.32395306 0.94300002 4805178
-0.69110882 0.33202925 0.94700003 4740409
-0.68745989 0.33694127 0.94200003 4609338
0.06822598 -0.20222321 0.95000005 2107429
0.074945308 -0.20222321 0.95000005 2173222
0.083904415 -0.20222321 0.95000005 3752254
0.095103294 -0.20222323 0.95000005 5397079
0.1040624 -0.20222321 0.95000005 6121055
0.06822598 -0.19774367 0.95000005 2107429
0.074984759 -0.19560796 0.95050001 2172966
0.08418379 -0.1961733 0.95325005 3818048
0.095103294 -0.19550389 0.94999999 5528665
0.1040624 -0.19550389 0.95000005 6318434
0.06822598 -0.18654478 0.95000005 2172962
0.074965619 -0.18659446 0.95025003 2238758
0.083904415 -0.18654478 0.95000005 3949632
0.095103294 -0.18654478 0.94999999 5594971
0.1040624 -0.18654478 0.95000005 6778474
0.06822598 -0.1753459 0.95000005 2107429
0.074945308 -0.1753459 0.94999999 2173222
0.083904415 -0.1753459 0.94999999 4278597
0.095103294 -0.17534591 0.94999993 5923679
0.1040624 -0.1753459 0.95000005 6844521
0.06822598 -0.16414702 0.95000005 2041636
0.074945308 -0.16414702 0.95000005 2173222
0.083904415 -0.16414702 0.95000005 4607818
0.095103294 -0.164147 0.94999999 6318180
0.1040624 -0.16414702 0.95000005 6910573
0.06822598 -0.15742768 0.95000005 2172709
0.081664637 -0.15742768 0.95000005 4016196
0.097343072 -0.1551879 0.95000005 6712937
0.1040624 -0.1551879 0.95000005 7173487
0.097343072 -0.14622881 0.95000005 6844777
0.1040624 -0.14622881 0.95000005 7239022
0.099582851 -0.13502991 0.95000005 6975591
0.1040624 -0.13502991 0.95000005 7107434
0.099582851 -0.12383103 0.95000005 6909797
0.1040624 -0.12383103 0.95000005 7107432
0.099582851 -0.11487192 0.95000005 6909798
0.1040624 -0.11487192 0.95000005 7041641
0.099582851 -0.10591281 0.95000005 6252381
0.1040624 -0.10591281 0.95000005 6515040
0.099582851 -0.094713926 0.95000005 5265746
0.1040624 -0.094713926 0.95000005 5528918
0.099582851 -0.083515048 0.95000005 4870992
0.1040624 -0.083515048 0.95000005 5199442
0.099582851 -0.074555941 0.95000005 4805707
0.1040624 -0.074555941 0.95000005 5068624
0.099582851 -0.065596834 0.95000005 4870729
0.1040624 -0.065596834 0.95000005 5068109
0.099582851 -0.056637719 0.95000005 4805195
0.1040624 -0.056637719 0.95000005 5002574
0.099582851 -0.045438837 0.95000005 4673866
0.1040624 -0.045438841 0.95000005 4937038
0.099582851 -0.034239955 0.95000005 4673609
0.099582851 -0.025280846 0.95000005 4673609
0.099582851 -0.016321739 0.95000005 4870729
0.099582851 -0.0051228539 0.95000005 4608328
0.099582851 0.0060760304 0.95000005 4870987
0.099582851 0.015035138 0.95000005 5002059
0.099582851 0.023994245 0.95000005 4871500
0.099582851 0.03519313 0.95000005 4936523
0.099582851 0.046392016 0.95000005 4936522
0.099582851 0.055351123 0.95000005 5067852
0.099582851 0.064310223 0.95000005 5199437
0.099582851 0.075509109 0.95000005 5133643
-0.70373565 0.30460626 0.95200002 5069117
-0.70145017 0.31006929 0.95500004 5003328
-0.69771051 0.31574252 0.95400006 4080946
-0.69422507 0.32601294 0.95333338 5068864
-0.69244397 0.33483416 0.95500004 4936247
-0.69063783 0.34369469 0.95666671 4146220
-0.68881863 0.34428233 0.95000005 4869428
-0.65166116 -0.34755215 0.96800005 8622720
-0.70812058 0.3052226 0.96100008 5463104
-0.70233005 0.31575829 0.96550006 4936509
-0.69672471 0.32477725 0.96300006 4804922
-0.6931029 0.33562869 0.96375006 4870970
-0.69059414 0.34289294 0.96500003 4277807
-0.68604386 0.34516808 0.96500003 5001275
-0.66164899 -0.35962877 0.97600007 8622974
-0.65670431 -0.35599524 0.97550005 8491647
-0.65043914 -0.34934735 0.97300005 8622720
-0.71999848 0.21060562 0.97400004 6055249
-0.72295535 0.29909062 0.97800004 5329981
-0.71465713 0.30521289 0.97300005 5659971
-0.7070595 0.31329957 0.97200006 5068093
-0.70184076 0.324292 0.97750008 5133117
-0.69946659 0.32442135 0.97100008 5067838
-0.69527054 0.33486441 0.97475004 4740411
-0.68502456 0.34238264 0.97000003 4606004
-0.6670723 -0.36721641 0.98400003 8754047
-0.65680015 -0.36331347 0.98600006 8491650
-0.64917195 -0.36294502 0.98500007 8360832
-0.65314537 -0.35688046 0.98750007 8294527
-0.7296083 0.21807061 0.98700005 6121042
-0.72175986 0.29779115 0.98900002 6184772
-0.71476471 0.29779115 0.98900002 6317133
-0.70776951 0.29779115 0.98900002 6185292
-0.72372669 0.30463108 0.9885 5594180
-0.71981275 0.30432326 0.98000002 5398084
-0.71419621 0.31283337 0.98500001 5266242
-0.70739049 0.31883565 0.98200005 4542010
-0.704907 0.32445431 0.98500007 4737849
-0.70239514 0.33010122 0.98800004 5528387
-0.69758224 0.33589873 0.98450005 4937533
-0.6920867 0.34129137 0.98000002 4279092
-0.68746567 0.34129137 0.98000002 4935223
-0.66514277 -0.37132147 0.99500006 8557438
-0.65510339 -0.37094828 0.99400002 8425855
-0.72451544 0.3069483 0.99600005 5726020
-0.71590525 0.31711453 0.99600005 5134913
-0.70793074 0.3245883 0.99250007 4738108
-0.70267987 0.33478117 0.995 5068863
-0.69354486 0.34079286 0.99200004 5002815
-0.74069661 0.22610952 1.0020001 5924946
-0.74217504 0.30230772 1.0040001 5068606
-0.7315979 0.30857101 1.0090001 5922116
-0.72302526 0.31508183 1.0070001 5332293
-0.71289653 0.32472053 1.005 5264448
-0.7049427 0.33499679 1.0026667 5265987
-0.74331689 0.22836609 1.0120001 6055251
-0.75030649 0.23382913 1.0150001 6974806
-0.74845839 0.23475061 1.0190001 7173214
-0.73543161 0.29964826 1.011 6187088
-0.72589725 0.29964826 1.011 6187087
-0.75104564 0.30113018 1.016 5595461
-0.74258232 0.30441543 1.011 5658176
-0.73260301 0.31101757 1.0170001 6119754
-0.72365791 0.31699279 1.0156666 5397828
-0.71564221 0.32531929 1.0167501 5331009
-0.70921206 0.33301857 1.011 5659205
-0.74876201 0.23636322 1.026 7436384
-0.75917703 0.24143623 1.0270001 7698786
-0.74416077 0.29838112 1.023 5661001
-0.73451316 0.29838112 1.023 6317905
-0.75139636 0.30320489 1.023 5660745
-0.73111129 0.31346411 1.0250001 5922635
-0.72303152 0.31656995 1.0272501 5529158
-0.71456087 0.31953943 1.029 5726536
-0.68544847 0.31953943 1.029 5331013
-0.67817044 0.31953943 1.029 5593928
-0.71392334 0.32538089 1.026 5988681
-0.70417297 0.32649872 1.028 5922375
-0.69430763 0.32641873 1.02775 5593927
-0.68375164 0.32719958 1.0276667 5396550
-0.67817044 0.32439148 1.029 5790537
-0.71258563 0.33440638 1.0250001 5790274
-0.70245367 0.33656645 1.0266666 5264960
-0.69393229 0.33634686 1.026 4805950
-0.68653756 0.33344626 1.0270001 4936770
-0.71419984 0.34246331 1.0250001 5134912
-0.70038283 0.3427974 1.026 5068608
-0.6955449 0.3427974 1.026 4543547
-0.76656926 0.2486769 1.0370001 6778452
-0.76167941 0.25601158 1.0370001 5923146
-0.75678968 0.25601158 1.0370001 6055248
-0.75678968 0.26334625 1.0370001 5594952
-0.6932224 0.30735433 1.0370001 5201223
-0.68833262 0.30735433 1.0370001 5528907
-0.71351433 0.315299 1.031 5659973
-0.70345467 0.3175745 1.0305001 5922121
-0.69588202 0.31620827 1.0308001 5790792
-0.68644768 0.31271535 1.0305001 5067584
-0.67672944 0.31271535 1.0305001 5396292
-0.66733479 0.3104375 1.031 5791308
-0.70865744 0.32016051 1.031 6120526
-0.69121695 0.32596773 1.034 5265735
-0.71282697 0.33927709 1.0300001 5724996
-0.70797014 0.33442029 1.0300001 5594180
-0.6947462 0.33506966 1.0320001 5265987
-0.7158196 0.34720373 1.0343333 5003070
-0.77100456 0.25749284 1.0430001 6317134
-0.71376169 0.28426948 1.0420001 5791307
-0.76461738 0.29872257 1.041 5594952
-0.75725448 0.29872257 1.041 5726537
-0.74743718 0.29872257 1.041 5529418
-0.76743901 0.30377707 1.0415001 5923402
-0.70955664 0.29748309 1.054 6448464
-0.71181494 0.30625629 1.0500001 5856332
-0.77503437 0.24966432 1.062 6711634
-0.78114372 0.25252315 1.0635 6843990
-0.77795357 0.25563124 1.0660001 6185549
-0.71830833 0.30618349 1.067 5988170
-0.67363036 -0.42184442 1.0760001 8360062
-0.72032791 0.31208974 1.0700001 5988686
-0.6712752 -0.4251768 1.0845001 8360066
-0.66903251 -0.41002446 1.085 8688517
-0.67577004 -0.40945762 1.0835001 8688516
-0.74407625 0.15894337 1.1290001 6318421
-0.73018092 0.15823947 1.1240001 6382674
-0.72287333 0.15838024 1.125 6515803
-0.71491623 0.15838024 1.125 6186837
-0.75006348 0.14842752 1.13 6711384
-0.74699521 0.14941266 1.1375 6580312
-0.73992527 0.14960968 1.1390001 6515032
-0.72381306 0.14960968 1.1390001 6450268
-0.74402642 0.15612628 1.1343335 6711640
-0.73594296 0.1547083 1.1370001 6712153
-0.72649843 0.15498044 1.1390001 6515802
-0.73046416 0.13911204 1.141 6384475
-0.72508401 0.13911204 1.141 6449755
-0.75198489 0.14449222 1.141 5989458
-0.74540144 0.14315058 1.1446667 6384218
-0.73448092 0.14636846 1.1416668 6252633
-0.72777176 0.14717996 1.141 6318937
-0.76318896 0.13572437 1.1580001 6450009
-0.75434637 0.13560715 1.1570001 6515802
-0.7440753 0.13572437 1.158 6646618
-0.73143876 0.13490391 1.151 6712411
-0.74164861 0.14020933 1.1500001 6384729
-0.76538515 0.13110769 1.1655 6515288
-0.75374651 0.13099521 1.1645 6777691
-0.74390829 0.13071398 1.1620001 6450009
-0.76428777 0.12464217 1.1736667 6318680
-0.75712645 0.12375311 1.174 6384474
-0.71573901 -0.48816106 1.1880001 8885379
-0.70774609 -0.47535151 1.184 8688517
-0.71164149 -0.48484841 1.1936668 8491395
-0.71291763 -0.4933832 1.2053334 8687489
-0.86306381 0.12997688 1.2060001 6778202
-0.85453379 0.12713355 1.2060001 6581595
-0.84600377 0.12713355 1.2060001 6516058
-0.70567584 -0.50089926 1.2190001 8752260
-0.71599513 -0.49433887 1.217 8491136
-0.70792216 -0.4984338 1.2130001 8949891
-0.86306453 0.11939029 1.2140001 6450520
-0.85447788 0.11939029 1.2140001 6318934
-0.8687889 0.12511469 1.2140001 6450522
-0.883138 0.13127019 1.2180001 6253141
-0.87739474 0.13127019 1.2180001 6515800
-0.84880966 0.29016301 1.21 5924176
-0.8229937 0.32546866 1.2140001 5857354
-0.8229937 0.33119306 1.2140001 5857100
-0.71203029 -0.49758843 1.225 8556676
-0.70509547 -0.4930166 1.228 8425091
-0.89111382 0.12086546 1.2290001 6516313
-0.88411623 0.12428229 1.2246667 6516313
-0.87522966 0.12027539 1.223 6516313
-0.84406537 0.28868908 1.228 5857870
-0.82418483 0.28105569 1.22 6185809
-0.81555575 0.28105569 1.22 5857870
-0.72191072 -0.49462253 1.2320001 8228737
-0.87428916 0.10423786 1.238 6384729
-0.86775011 0.10415367 1.2370001 6318936
-0.90347701 0.115913 1.238 6582108
-0.8932752 0.11572574 1.2360001 6515802
-0.88238609 0.11544485 1.233 6581595
-0.87428916 0.11299421 1.238 6450520
-0.86845154 0.11299421 1.238 6187862
-0.89836848 0.12106214 1.2310001 6055764
-0.84032285 0.28939435 1.2310001 6055249
-0.85454738 0.29711735 1.2390001 5726539
-0.84032285 0.29519892 1.2310001 5924176
-0.83824688 0.29359668 1.2365 5923920
-0.82825708 0.29711735 1.2390001 5857870
-0.84578395 0.30295962 1.2390001 6054479
-0.7154308 -0.51199383 1.2460001 8556418
-0.71485656 -0.50571233 1.245 8490884
-0.71783262 -0.49783435 1.24 8425859
-0.89383638 0.10516405 1.2490001 6188118
-0.91335428 0.11348795 1.2435 6320219
-0.90565258 0.11069782 1.2450001 6647643
-0.89540362 0.11051999 1.243 6778456
-0.88563198 0.11247214 1.2430001 6450518
-0.86540115 0.29783675 1.2420001 5792590
-0.84015816 0.29927558 1.248 6121042
-0.83813852 0.29268557 1.245 6120272
-0.86490691 0.30454901 1.2455001 5923664
-0.85231352 0.30320412 1.24 6054479
-0.84197545 0.30369321 1.2420001 6317651
-0.86438918 0.31129426 1.2490001 6186837
-0.85452402 0.31386513 1.2475001 6646870
-0.8472811 0.31042194 1.2455001 6712152
-0.77294099 0.39217007 1.2440001 5790280
-0.91214085 0.099989958 1.258 6516313
-0.90324068 0.097021669 1.2580001 6451033
-0.89513296 0.097878635 1.2563335 6450520
-0.88700092 0.099830993 1.256 6450520
-0.92180109 0.10566925 1.2550001 6516313
-0.91661316 0.10278514 1.256 6384727
-0.90447849 0.10537454 1.2515001 6253654
-0.88936877 0.10533244 1.251 6188118
-0.85534078 0.28274971 1.253 5068356
-0.84487063 0.30687195 1.2550001 6711639
-0.86923361 0.31896132 1.256 6712663
-0.85533142 0.31819946 1.253 6646099
-0.86262387 0.32462513 1.2550001 6646098
-0.85534078 0.32410777 1.253 5988168
-0.85534078 0.3329702 1.253 5988940
-0.84647834 0.33001608 1.253 5858380
-0.74367321 0.33753297 1.2590001 6907993
-0.76384401 0.3491286 1.258 6316374
-0.75449789 0.34595454 1.2572501 6645336
-0.74515885 0.34575111 1.2565 6908249
-0.7395283 0.34292394 1.2570001 6908763
-0.91664582 0.353367 1.2520001 6054733
-0.90483868 0.353367 1.2520001 5857351
-0.89598328 0.353367 1.2520001 5594698
-0.77038783 0.35534269 1.2590001 6251090
-0.76384401 0.35506043 1.258 6316626
-0.75851464 0.35534269 1.2590001 6250833
-0.77038783 0.36127928 1.2590001 6315854
-0.78163964 0.37582201 1.258 5725004
-0.72208369 -0.52103382 1.268 8097410
-0.72037536 -0.51383626 1.2650001 8228226
-0.91504121 0.094357163 1.2620001 6385497
-0.90837008 0.094282396 1.261 6320217
-0.92620802 0.10022841 1.261 6582108
-0.85824543 0.27672416 1.266 4869180
-0.8502562 0.31478354 1.263 6580053
-0.88247228 0.32461965 1.2665 6975320
-0.87200189 0.32591844 1.2600001 6646098
-0.85429549 0.32226267 1.2690001 6186319
-0.86880994 0.33589336 1.2640001 6251341
-0.76273191 0.33940962 1.266 6054481
-0.75457317 0.33533582 1.2656667 6250320
-0.74364656 0.33291328 1.2640001 6185040
-0.73412275 0.3356241 1.263 6777179
-0.72777569 0.33682224 1.2675 6974816
-0.77650684 0.34619766 1.2690001 5725264
-0.76687992 0.34456077 1.263 6119254
-0.74129325 0.34968367 1.2600001 6250579
-0.7335391 0.34428799 1.2620001 6776920
-0.72863698 0.34619766 1.2690001 6119504
-0.78249061 0.3521814 1.2690001 5791055
-0.77581549 0.35349631 1.263 5987663
-0.75377351 0.35590717 1.261 6053454
-0.74780321 0.3573184 1.266 6053201
-0.73615354 0.35148758 1.2665 6053200
-0.78598899 0.36597875 1.2650001 6119502
-0.77598518 0.3660101 1.2616668 6053455
-0.76510483 0.36300105 1.2650001 6053195
-0.80268669 0.37740979 1.2600001 5987917
-0.794765 0.37641954 1.2600001 5987917
-0.78882366 0.37641954 1.2600001 5659210
-0.7794075 0.37463441 1.2640001 5856075
-0.80515462 0.38747221 1.2670001 5790537
-0.79602647 0.38594311 1.2620001 5856073
-0.84161675 0.035264049 1.2770001 6582878
-0.83690399 0.03531928 1.279 6254172
-0.86035436 0.27031264 1.2780001 5398604
-0.86213392 0.28630564 1.2776667 5725001
-0.85098565 0.31127328 1.273 6251858
-0.89440691 0.32378638 1.2750001 6712663
-0.85698825 0.32928106 1.273 5858124
-0.75553709 0.32953975 1.274 6316626
-0.7447421 0.32718772 1.2726668 6185044
-0.73531669 0.32544395 1.2736667 5988434
-0.72768813 0.32761726 1.2743334 6383190
-0.89721286 0.33384854 1.279 6646868
-0.88445908 0.3366006 1.2780001 6186317
-0.86638051 0.33057442 1.2780001 6120526
-0.76604247 0.33319008 1.2765 6315856
-0.72300005 0.3342391 1.2766668 7040350
-0.89419746 0.34591034 1.279 5922890
-0.88445908 0.34563988 1.2780001 5856841
-0.86102748 0.34892577 1.279 6054479
-0.78471875 0.34550348 1.2775002 5659211
-0.77173746 0.3407501 1.271 5857102
-0.72578526 0.34469682 1.2745 6185556
-0.79406637 0.35467917 1.2780001 5988434
-0.78971702 0.3587296 1.271 6251090
-0.74352252 0.35957631 1.274 5724494
-0.73265624 0.35412407 1.276 5987666
-0.76034892 0.36500973 1.2720001 6185043
-0.75731623 0.36644453 1.2770001 5790285
-0.79758835 0.37159097 1.274 6120272
-0.78017831 0.3778947 1.2750001 5592903
-0.77173746 0.37071595 1.271 5790539
-0.81432992 0.38900131 1.2720001 5724744
-0.79302424 0.38884839 1.2715001 5396550
-0.78310722 0.38240123 1.2700001 5528137
-0.80502003 0.39484394 1.2715001 5527623
-0.79282367 0.39624131 1.276 5856330
-0.81214494 0.40288857 1.2780001 5790537
-0.80548799 0.40257329 1.2770001 5856330
-0.79571015 0.40068179 1.271 5461315
-0.83616698 0.029368531 1.2825 6516318
-0.82871169 0.029425781 1.2850001 6581341
-0.83347166 0.035429738 1.2830001 6319967
-0.82568204 0.03548497 1.2850001 6319709
-0.8135637 0.03548497 1.2850001 6384734
-0.80447489 0.03548497 1.2850001 6252891
-0.83238614 0.041576482 1.286 6516061
-0.82265246 0.044573747 1.2850001 6450269
-0.8135637 0.044573747 1.2850001 6319197
-0.80447489 0.044573747 1.2850001 6516063
-0.86102259 0.27449375 1.2835001 4937282
-0.85566509 0.31902054 1.2800001 6448467
-0.74214637 0.31951901 1.2820001 6645591
-0.73422241 0.31698436 1.284 6645333
-0.72739977 0.31494108 1.2880001 6447958
-0.86034453 0.32683378 1.2870001 5923917
-0.76206058 0.32632589 1.2850001 6382676
-0.7530598 0.32505614 1.2800001 6250836
-0.74994224 0.32026672 1.2850001 6711639
-0.72253001 0.32323045 1.28475 5988692
-0.8946659 0.33818087 1.284 5989708
-0.78813308 0.33923441 1.2880001 6645591
-0.77599418 0.33488789 1.283 6578772
-0.71964633 0.33541465 1.2850001 6645594
-0.7929731 0.34477153 1.286 5922125
-0.72182405 0.34410131 1.2835001 6316372
-0.94603968 0.35441774 1.2880001 6908241
-0.93692976 0.35441774 1.2880001 6186318
-0.92478311 0.35441777 1.2880001 6054733
-0.91567308 0.35138109 1.2880001 6120526
-0.90959972 0.35138109 1.2880001 6120526
-0.80697906 0.35773194 1.289 5791309
-0.79903704 0.35083544 1.286 6054227
-0.73062575 0.35606679 1.2830001 5594448
-0.72514075 0.35028982 1.284 5725516
-0.86034453 0.36324546 1.2870001 6053452
-0.85833901 0.3684532 1.284 5922377
-0.80259675 0.36485443 1.2820001 5856842
-0.75355077 0.36902714 1.286 5987407
-0.74098861 0.36126977 1.2800001 5790287
-0.73897225 0.36324546 1.2870001 5856080
-0.85767061 0.37421605 1.2830001 5528905
-0.77357644 0.3745077 1.284 5527367
-0.78874493 0.38812214 1.289 5658699
-0.82935655 0.39328274 1.286 5658951
-0.81945151 0.39748347 1.2800001 5396297
-0.80572701 0.39965719 1.2870001 5658951
-0.79235649 0.39600888 1.2850001 5790282
-0.82393289 0.40572578 1.2870001 5329988
-0.80587173 -0.18435135 1.2970001 7306097
-0.84126711 0.0052294196 1.2950001 6384475
-0.83645058 0.005237496 1.2970001 6581854
-0.87146211 0.026590157 1.2945001 6582365
-0.8365922 0.047881179 1.2925 6451038
-0.86157739 0.26842239 1.2980001 6054733
-0.86262977 0.27695206 1.2950001 5264964
-0.86368698 0.28545818 1.2920001 6645848
-0.8589223 0.28590006 1.294 6711641
-0.73561054 0.3065491 1.2953334 7303519
-0.72829276 0.30748612 1.2950001 7040349
-0.85759473 0.31591916 1.2920001 5592903
-0.75359356 0.31395924 1.2965001 7369054
-0.74459743 0.31274843 1.2915001 7631455
-0.72320491 0.31257555 1.2950001 6382936
-0.71969563 0.31689721 1.296 6185813
-0.91171831 0.32784957 1.291 6516052
-0.86091363 0.32325754 1.2970001 5527367
-0.78201115 0.32962725 1.2980001 6578515
-0.77170628 0.32784957 1.291 6579028
-0.76917708 0.32325754 1.2970001 7236956
-0.75953138 0.32176211 1.291 6843225
-0.71709853 0.32683152 1.2950001 6383708
-0.86502391 0.33471304 1.294 6054733
-0.79486394 0.33600637 1.299 6579028
-0.78448844 0.33419573 1.2920001 6579028
-0.71635532 0.33510107 1.2955 6514781
-0.80525035 0.34745249 1.296 6053454
-0.79975593 0.34160483 1.2970001 6316626
-0.71830738 0.34373617 1.2935001 6119509
-0.81198752 0.35383639 1.2970001 6185297
-0.72448736 0.35495615 1.2936667 5725775
-0.86157739 0.3602297 1.2980001 5198400
-0.85693097 0.36437443 1.291 5659469
-0.81621099 0.36522114 1.294 5857102
-0.73688984 0.36522114 1.294 5659471
-0.7269268 0.3602297 1.2980001 5659469
-0.85792661 0.37393373 1.2925 5594952
-0.81431866 0.37350333 1.2910001 6382932
-0.77110857 0.37625775 1.2900001 5921614
-0.76917708 0.37829944 1.2970001 5856080
-0.75025088 0.37189668 1.296 5659471
-0.78570282 0.38352606 1.294 5592649
-0.84386563 0.3972584 1.299 5527365
-0.83516079 0.40214148 1.2950001 5463112
-0.72524887 -0.53664845 1.3060001 8555913
-0.71573859 -0.536443 1.3055 8555657
-0.70342451 -0.536443 1.3055 8424073
-0.6949895 -0.53705931 1.307 8490122
-0.68935364 -0.53747028 1.3080001 8227977
-0.89220303 0.029929569 1.307 6845280
-0.88129473 0.026704315 1.3000001 6779487
-0.73925948 0.13490537 1.309 6318684
-0.7241382 0.13439007 1.304 6319454
-0.73252714 0.1471376 1.3080001 6384477
-0.72804683 0.14010775 1.3000001 6319454
-0.72691476 0.15342243 1.309 6581341
-0.86821514 0.28282562 1.3080001 6382676
-0.73561096 0.28899327 1.3080001 6317139
-0.86903489 0.29335564 1.3000001 6186319
-0.74258459 0.29732794 1.3040001 6382932
-0.73419636 0.29622793 1.3036667 6252116
-0.72748554 0.29744077 1.3045001 6186070
-0.75546104 0.30679092 1.3050001 6448467
-0.74815917 0.30324167 1.3030001 6251089
-0.72263765 0.30268389 1.3050001 6580573
-0.71909064 0.307026 1.3060001 6251608
-0.76380873 0.3156544 1.3035001 7171676
-0.71586794 0.316201 1.30575 6120791
-0.78067273 0.32550064 1.3060001 6908761
-0.71463263 0.32487756 1.3035001 6317915
-0.86688763 0.33165884 1.3060001 5857870
-0.80653876 0.33833438 1.3080001 5922125
-0.79238194 0.33140489 1.3050001 6447442
-0.71293247 0.33473796 1.3060001 6121307
0.12477459 0.33525056 1.3080001 6511178
-0.81146377 0.34397528 1.3060001 6316624
-0.71574998 0.34540871 1.3036667 5857108
-0.82504171 0.3568373 1.3080001 6119502
-0.81824797 0.35040155 1.307 5987916
-0.71964121 0.35656449 1.307 5791057
-0.8286674 0.36804357 1.304 5857102
-0.81999558 0.36078474 1.3000001 6119504
-0.73335433 0.3680436 1.3040001 6316631
-0.72524887 0.36244991 1.3060001 6317399
-0.82739645 0.37361845 1.302 5726286
-0.7459389 0.37433583 1.3045001 5856594
-0.86072946 0.38092452 1.3060001 5791561
-0.84418952 0.38797185 1.309 5463114
-0.83577645 0.38384831 1.3055 5987663
-0.82803196 0.3800495 1.3030001 6384216
-0.78743333 0.38737908 1.307 5921614
-0.76527011 0.38092449 1.306 6184786
-0.84096497 0.41108501 1.304 5461572
-0.73476726 -0.53911388 1.312 8490886
-0.72313869 -0.53577071 1.319 8424582
-0.71326834 -0.53536457 1.3180001 8490633
-0.70421195 -0.53556764 1.3185 8359047
-0.69462395 -0.53536457 1.3180001 8359047
-0.68658102 -0.5370338 1.3145001 8556426
-0.85685813 -0.23101491 1.319 7635316
-0.68893141 -0.13150281 1.319 7504505
-0.68736452 -0.12499836 1.3160001 7504505
-0.68788683 -0.11577587 1.3170002 7307126
-0.69693601 -0.10021497 1.3165001 7241332
-0.69693601 -0.094007254 1.3165001 7110001
-0.70137042 -0.08174675 1.319 7240817
-0.69409686 -0.087832876 1.317 7306610
-0.71164477 0.0053101829 1.3150001 6517094
-0.71164477 0.014611151 1.3150001 6583139
-0.86307764 0.023984855 1.319 6845026
-0.86797905 0.030158563 1.317 6582626
-0.72569788 0.12340334 1.3180001 6450270
-0.73868752 0.13593598 1.319 6253661
-0.72184366 0.13511151 1.3110001 6581856
-0.74038905 0.14129329 1.3110001 6516063
-0.72535104 0.14446735 1.3117501 6319197
-0.73420727 0.15365686 1.3110001 6449755
-0.72294486 0.15389127 1.3130001 6384477
-0.727144 0.16032633 1.3150001 6515806
-0.76511621 0.22165649 1.3110001 6186583
-0.7572813 0.22207916 1.3135 6384216
-0.74503654 0.22522175 1.31375 6514776
-0.73868752 0.22922857 1.319 6712411
-0.74688256 0.23509108 1.317 6646618
-0.73868752 0.23544808 1.319 6580825
-0.75112653 0.24166757 1.319 7040606
-0.74462461 0.24468572 1.3185 7698021
-0.73840749 0.24468572 1.3185 7435364
-0.74490702 0.25410661 1.319 6973786
-0.73529774 0.25401029 1.3185 6383704
-0.74462461 0.26333481 1.3185 6449239
-0.73501891 0.26323497 1.3180001 6121302
-0.74528283 0.27628008 1.316 7435106
-0.73419219 0.27393273 1.3146667 6712157
-0.7268455 0.27634898 1.3163334 6449244
-0.75734603 0.28520411 1.319 7435359
-0.74488991 0.28567746 1.3116668 7106137
-0.73420727 0.28347433 1.3110001 6515030
-0.72669894 0.28582165 1.3123333 6186325
-0.71948308 0.2849879 1.3180001 6186583
-0.86797905 0.29098174 1.317 6119502
-0.76298666 0.29741749 1.3180001 6251858
-0.753901 0.29318887 1.3130001 6711382
-0.72239423 0.29296795 1.312 6121048
-0.71668214 0.29504815 1.3166667 6252892
-0.76686698 0.3089067 1.314 6448210
-0.75951326 0.30225006 1.312 6382674
-0.71460271 0.30598155 1.31475 6318173
-0.8817361 0.31008214 1.319 5857872
-0.7736513 0.31534246 1.3150001 6448212
-0.71164477 0.31534246 1.3150001 6055512
-0.79225314 0.32774374 1.3150001 6382419
-0.77807271 0.32080954 1.312 6712409
-0.71110356 0.32439655 1.314 6252891
-0.87153399 0.33962771 1.3130001 6120272
-0.80281872 0.33318251 1.312 6381649
-0.71083301 0.33666143 1.3135 6055259
-0.87571973 0.34502879 1.3100001 5791559
-0.82388246 0.34660909 1.3160001 6513233
-0.8182984 0.34066236 1.317 5922123
-0.71164477 0.34634569 1.3150001 5923928
-0.88526285 0.35254633 1.3150001 5857354
-0.87571973 0.35738292 1.3100001 5726538
-0.83414137 0.35632396 1.3175001 6053710
-0.71504754 0.35425416 1.3136667 5922645
-0.86797905 0.36550269 1.317 5264193
-0.84377897 0.36578023 1.3180001 5987918
-0.83248031 0.36355999 1.3100001 6054481
-0.72148693 0.36522514 1.316 6383195
-0.8650288 0.37547174 1.3156668 5594443
-0.85620856 0.37820977 1.3180001 5463114
-0.84870392 0.37453079 1.316 5725515
-0.83929753 0.37310779 1.3110001 5922638
-0.74151856 0.376775 1.3130001 6185043
-0.73812747 0.37820977 1.3180001 6317399
-0.72796988 0.3715716 1.3164999 6646110
-0.86256731 0.38620058 1.3135 5528905
-0.85620856 0.38442457 1.3180001 5265735
-0.84741408 0.38325787 1.314 5463114
-0.78545469 0.3894538 1.314 5921614
-0.76067108 0.38325787 1.314 6382165
-0.75734603 0.38471621 1.319 5986639
-0.86111468 0.3900466 1.3160001 5265733
-0.85555887 0.39034298 1.317 5463112
-0.85231078 0.40742055 1.312 5396549
-0.85620856 0.41549852 1.3180001 5461826
0.11640634 0.46521685 1.3180001 6378304
0.12572852 0.46521685 1.3180001 6904650
0.10708416 0.47453904 1.3180001 6115390
0.11640634 0.47453904 1.3180001 6444354
0.12572852 0.47453904 1.3180001 6838855
0.10708416 0.48386124 1.3180001 6049339
0.11640634 0.48386124 1.3180001 6378563
0.12572852 0.48386124 1.3180001 6904650
0.10708416 0.49007604 1.3180001 5984059
0.11640634 0.49007604 1.3180001 6575683
0.12572852 0.49007604 1.3180001 6707782
-0.74829555 -0.54445571 1.325 8490120
-0.68426478 -0.54322296 1.322 8818568
-0.73413396 -0.53698933 1.322 8490886
-0.69989419 -0.53316456 1.3280001 8621706
-0.68633521 -0.3010186 1.3260001 8227712
-0.68788803 -0.29543298 1.3290001 8294021
-0.86140561 -0.22598842 1.3260001 7635314
-0.80068785 -0.18576643 1.3290001 7372144
-0.80068785 -0.17636643 1.3290001 7175278
-0.6920653 -0.1383488 1.325 7505275
-0.68685275 -0.13230039 1.327 7635577
-0.68529999 -0.12575823 1.3240001 7570298
-0.69778609 -0.11327206 1.3240001 7306612
-0.6855588 -0.11643638 1.3245001 7373432
-0.7040292 -0.10702898 1.3240001 7175024
-0.69831312 -0.10710981 1.325 7438198
-0.68815446 -0.10386702 1.3235002 7438454
-0.68841445 -0.094542809 1.3240001 7241333
-0.7040292 -0.088299729 1.3240001 7240817
-0.69049835 -0.08504951 1.322 7109746
-0.68685275 -0.088499792 1.327 7438712
-0.69413751 -0.075756297 1.3230001 7240817
-0.69623613 -0.066597134 1.3270001 7109746
-0.69636559 -0.05409582 1.3272501 7109745
-0.69649732 -0.044716038 1.3275001 7043696
-0.70456094 -0.032136228 1.325 7109233
-0.69649732 -0.035326656 1.3275001 7043953
-0.70456094 -0.025888428 1.325 7108718
-0.69649732 -0.025937276 1.3275001 7043439
-0.7040292 -0.016504265 1.3240001 6977644
-0.696235 -0.016542841 1.327 6978159
-0.71324271 -0.0029865727 1.3256668 6780265
-0.70323157 -0.0040147253 1.3225 6912106
-0.69570911 -0.0040241685 1.3260001 7109485
-0.72494203 0.0053626788 1.3280001 6582887
-0.70608246 0.00533845 1.322 6714728
-0.69544804 0.0053525837 1.3255 6912107
-0.88149059 0.017886568 1.3280001 6451038
-0.87259251 0.017832693 1.3240001 6516061
-0.86387515 0.014719905 1.325 6647646
-0.85515308 0.01785963 1.3260001 6516063
-0.72166663 0.017805753 1.322 6583139
-0.70634955 0.014695663 1.3225 6780519
-0.6957103 0.014734552 1.326 6911851
-0.88016307 0.024112144 1.3260001 6516063
-0.87061536 0.024021223 1.3210001 6581341
-0.85471815 0.024012132 1.3205001 6581341
-0.84954071 0.024130328 1.327 6581341
-0.83389759 0.024130328 1.327 6384475
-0.71027231 0.024075776 1.3240001 6714727
-0.70456094 0.024093959 1.325 6780520
-0.69676089 0.024148513 1.3280001 6911339
-0.88842106 0.030433359 1.3290001 6713694
-0.87883556 0.03031886 1.3240001 6450268
-0.84577191 0.030364659 1.326 6450014
-0.83389759 0.030387556 1.327 6450269
-0.7113452 0.033493273 1.326 6648933
-0.7056244 0.03351853 1.3270001 6714727
-0.69989419 0.030410457 1.3280001 6977899
-0.71605158 0.044989329 1.327 6582884
-0.71868002 0.055458233 1.3280001 6452069
-0.72900158 0.11772203 1.3240001 6516061
-0.72439611 0.12424599 1.327 6451040
-0.72193962 0.13317515 1.3225001 6385247
-0.71813887 0.13362949 1.3270001 6516833
-0.74716604 0.14882496 1.3230001 6384477
-0.72057486 0.14537537 1.3200001 6516832
-0.71473497 0.14609124 1.3265002 6451296
-0.72112077 0.15482891 1.3210001 6253661
-0.71705651 0.15529773 1.325 6451040
-0.73635525 0.16791998 1.3260001 6450270
-0.72483319 0.16558568 1.324 6319454
-0.71868002 0.16191129 1.3280001 6385760
-0.7317546 0.20589985 1.3290001 6252891
-0.73579991 0.2177757 1.325 6449757
-0.76530224 0.22974995 1.322 6515032
-0.75849444 0.22957617 1.3210001 6449239
-0.73495752 0.22532833 1.3235 6383960
-0.77611649 0.23018442 1.3245001 6383446
-0.76761788 0.23669763 1.3260001 6449239
-0.75849444 0.23580511 1.3210001 6515032
-0.73184073 0.23312512 1.3235002 6383704
-0.72697181 0.23669763 1.3260001 6383707
-0.76107824 0.24598713 1.3255 7106656
-0.75226551 0.24826297 1.3210001 7632484
-0.73302335 0.24496292 1.3200001 6974558
-0.72628713 0.24584383 1.3247501 6515549
-0.76308793 0.25603312 1.3290001 7368542
-0.75340444 0.25487721 1.3230001 7369312
-0.72560227 0.25497353 1.3235 6252890
-0.71922123 0.25603312 1.3290001 6252889
-0.76308793 0.26856643 1.3290001 6382676
-0.75311971 0.26413372 1.3225 6645848
-0.72477996 0.26403385 1.3220001 6187098
-0.71840942 0.26513234 1.3275001 6384478
-0.76193947 0.27441949 1.327 6449239
-0.75566936 0.27640131 1.3215001 6777947
-0.72084785 0.27618742 1.3205001 6514780
-0.71500552 0.27441949 1.3270001 6515550
-0.76877564 0.28715017 1.3280001 7303776
-0.71392792 0.28337523 1.325 6252634
-0.77562124 0.29989976 1.3290001 6448464
-0.76588118 0.29230741 1.3230001 7303521
-0.71199101 0.29446208 1.3233334 6449757
-0.70642203 0.29665357 1.3285 6581087
-0.77211952 0.30478415 1.3230001 6316624
-0.70768011 0.30524489 1.325 6318173
-0.78383976 0.31509146 1.327 6120016
-0.7071448 0.31437796 1.3240001 6121049
-0.80331135 0.32973763 1.3230001 6250833
-0.79083461 0.32349926 1.3230001 6448469
-0.70711517 0.32532948 1.322 6449757
-0.94339913 0.33699179 1.327 5989710
-0.87522876 0.33411711 1.3280001 5922381
-0.82575446 0.33749971 1.3290001 6052430
-0.81455487 0.33546808 1.3210001 6381649
-0.70610398 0.33414578 1.324 6252635
-0.93290466 0.34169704 1.3210001 6646866
-0.87618041 0.3476626 1.3200001 6054733
-0.83358461 0.3462483 1.3265001 6447955
-0.70687664 0.34546524 1.3235002 5923928
-0.88574708 0.35522729 1.325 6054733
-0.84328347 0.35576347 1.327 6185297
-0.70794594 0.35536134 1.3255 6186844
-0.87817174 0.36092949 1.3230001 4935998
-0.86550862 0.36841673 1.3275001 5659722
-0.8545081 0.3677229 1.325 5857102
-0.84890056 0.36174792 1.3260001 5987916
-0.71379143 0.36453435 1.3247502 6645853
-0.86438638 0.37284172 1.3210001 5791309
-0.85880703 0.37312394 1.322 5660491
-0.73413396 0.37935758 1.322 6580573
-0.72275847 0.37368843 1.3240001 6448989
-0.71922123 0.37509966 1.3290001 6580575
-0.75283492 0.38559124 1.322 6644056
-0.74601173 0.38690376 1.3265001 6250838
-0.73010278 0.38050544 1.3260001 6317401
-0.78206062 0.3924177 1.3240001 6842969
-0.80832589 0.40398642 1.3210001 6053200
0.10136682 0.48312125 1.3245001 5060386
0.10125202 0.49193519 1.3230001 5191717
-0.75507253 -0.54308224 1.337 8425091
-0.745408 -0.54064506 1.3310001 8490884
-0.68630034 -0.54419166 1.332 8818567
-0.74450302 -0.53597486 1.335 8292993
-0.7328558 -0.53436899 1.3310001 8424580
-0.72398514 -0.53477043 1.332 8489607
-0.71510041 -0.53517193 1.3330001 8621706
-0.70881486 -0.53517193 1.3330001 8555913
-0.69781077 -0.53637636 1.3360001 8555913
-0.86095721 -0.2338172 1.335 7502960
-0.8657217 -0.22479615 1.3375001 7569522
-0.80490512 -0.20249404 1.3360001 7241071
-0.81181192 -0.17742807 1.337 7175278
-0.69467688 -0.14514224 1.33 7767163
-0.68662125 -0.13726139 1.3346667 7570298
-0.70358336 -0.12050809 1.335 7439482
-0.68315995 -0.12337768 1.332 7570298
-0.68367285 -0.11404203 1.3330001 7373689
-0.68444216 -0.10473029 1.3345001 7438455
-0.68521148 -0.095399693 1.3360001 7503991
-0.70516449 -0.082924306 1.3380001 7306612
-0.68623728 -0.086076498 1.3380001 7438455
-0.69073474 -0.07326968 1.3345001 7306867
-0.69099355 -0.063853525 1.335 7372919
-0.69099355 -0.054411098 1.335 7241331
-0.69151115 -0.045002356 1.3360001 7175540
-0.69151115 -0.038702689 1.3360001 6913138
-0.68835425 -0.032403022 1.3360001 7306612
-0.68835425 -0.026103351 1.3360001 7175026
-0.7430191 -0.01983333 1.3380001 6648934
-0.73615938 -0.013514124 1.337 6517862
-0.72589105 -0.016647618 1.3355 6780264
-0.71429569 -0.016598934 1.3315001 6911851
-0.68809783 -0.016647618 1.3355 7175027
-0.73726064 -0.0072205276 1.3390001 6452069
-0.72503036 -0.0050891782 1.3320001 6583656
-0.68745434 -0.0040497952 1.33425 7109231
-0.87223846 0.0053828699 1.3330001 6451038
-0.85530251 0.005394984 1.3360001 6516063
-0.73505819 0.0053909458 1.335 6583141
-0.68485707 0.005392292 1.3353335 6978157
-0.89042646 0.017940441 1.332 6516061
-0.8544054 0.01374426 1.3313333 6713184
-0.84836733 0.017980849 1.335 6647136
-0.73040092 0.011712158 1.3380001 6452067
-0.68485779 0.014837864 1.3353333 7043181
-0.88975799 0.024203066 1.3310001 6582108
-0.68520212 0.024293983 1.3360001 7042668
-0.70094824 0.03672763 1.33 6846313
-0.69335753 0.033682704 1.3335 6846057
-0.68413264 0.032742482 1.3380002 6977642
-0.71349102 0.04927038 1.33 6583141
-0.70514035 0.046206426 1.332 6780521
-0.69517857 0.046379864 1.337 6780522
-0.68675017 0.043289978 1.3390001 7043438
-0.71402746 0.055583518 1.3310001 6649194
-0.70672858 0.05575056 1.335 6780265
-0.69937772 0.055917606 1.3390001 6780520
-0.71067595 0.065267414 1.3365 6517861
-0.70516449 0.062184941 1.3380001 6846311
-0.71462584 0.074803136 1.3380001 6517347
-0.72355062 0.084203802 1.337 6517349
-0.71805096 0.084299453 1.3385 6451813
-0.72355062 0.096812561 1.337 6385762
-0.71831918 0.093800478 1.3390001 6583141
-0.72300947 0.10618965 1.3360001 6385762
-0.71805096 0.10323146 1.3385 6517348
-0.72534639 0.11550696 1.3345001 6385761
-0.71422458 0.11574559 1.33725 6451554
-0.71544701 0.1248702 1.3336667 6582626
-0.71282166 0.13315098 1.3326668 6516834
-0.70673418 0.13568646 1.3370003 6517091
-0.70742244 0.14590321 1.3343334 6319711
-0.71349102 0.15588376 1.33 6582624
-0.7062071 0.15448552 1.336 6713954
-0.7203036 0.16855316 1.3310001 6582626
-0.71371418 0.16688168 1.3343334 6319710
-0.70778489 0.16300859 1.3370001 6451554
-0.72425103 0.17502625 1.3325 6516063
-0.71724623 0.17561734 1.337 6581858
-0.73094684 0.18850769 1.3390001 6319454
-0.72670043 0.18192174 1.3370001 6450012
-0.73258656 0.19623296 1.3343334 6318942
-0.73067391 0.20421475 1.3385 6253662
-0.73531491 0.21468268 1.3316667 6449756
-0.7264275 0.21651249 1.3365 6384477
-0.72452396 0.2253761 1.3330001 6318682
-0.71778268 0.22622147 1.3380001 6450270
-0.777372 0.23776865 1.332 6450009
-0.72275478 0.2335235 1.3316667 6516060
-0.71532053 0.23661923 1.3373333 6450270
-0.78145736 0.245332 1.3390001 6515032
-0.7699334 0.24368301 1.33 6515032
-0.7203036 0.24386624 1.3310001 6515552
-0.71580315 0.24656741 1.3343334 6515551
-0.77398574 0.25442684 1.3370001 7369057
-0.71302235 0.25404036 1.335 6384221
-0.70569152 0.25795963 1.3390001 6450270
-0.76366204 0.26249716 1.33 6777177
-0.71402746 0.26583019 1.3310001 6581343
-0.70812982 0.26571229 1.3356667 6646880
-0.77456462 0.27353737 1.3380001 6580312
-0.70585424 0.27404132 1.3353333 6383964
-0.69911659 0.27364075 1.3385 6449757
-0.77167016 0.28194579 1.3330001 6712411
-0.70540267 0.28498048 1.3325 6186841
-0.69640255 0.28706685 1.3373333 6120792
-0.77912289 0.29495871 1.335 7172192
-0.70252937 0.29451683 1.3330001 6515550
-0.69517857 0.29540062 1.3370001 6186585
-0.78659445 0.30800939 1.337 6382676
-0.70173883 0.30360192 1.3315001 6186585
-0.69491744 0.30474317 1.3365 6054744
-0.70147532 0.31604129 1.3310001 6120793
-0.69518703 0.31594035 1.335 6054742
-0.80430263 0.32643348 1.335 6054227
-0.70094824 0.3252109 1.33 6514780
-0.69360787 0.32457653 1.336 6054229
0.12114593 0.32352817 1.3360001 6313283
-0.83640349 0.33927733 1.3360001 5987664
-0.82442069 0.33322692 1.337 6185297
-0.813833 0.33148226 1.33 6185297
-0.70094824 0.33461794 1.33 6120792
-0.69439745 0.33600172 1.3355 5988694
0.12114593 0.33927733 1.3360001 6116419
-0.8778649 0.34454232 1.332 5856848
-0.84270316 0.345577 1.3360001 6316883
-0.70147532 0.3442837 1.3310001 6055510
-0.69439745 0.34544766 1.3355 5726035
-0.68675017 0.34319609 1.3390001 6645340
-0.88149476 0.35562965 1.3343334 5659722
-0.8546623 0.35790825 1.335 5922125
-0.84900284 0.35187668 1.3360001 6645591
-0.70173883 0.35383186 1.3315001 6186587
-0.69465864 0.35502651 1.336 5856852
-0.68675017 0.35582376 1.3390001 6447961
0.12706402 0.35396355 1.332 6511177
-0.87537652 0.36365759 1.3330001 5067587
-0.86790186 0.36447603 1.3360001 5856332
-0.85966742 0.36365759 1.3330001 5922123
-0.70618635 0.36547837 1.3320001 6252379
-0.69517857 0.36474884 1.3370001 5791058
-0.68675017 0.36529446 1.3390001 6579805
0.12706402 0.36652517 1.332 6641991
-0.71456391 0.37594634 1.332 6579803
-0.70603305 0.37488294 1.3356667 6449243
-0.69569969 0.37448645 1.3380001 5856340
-0.68675017 0.37160829 1.3390001 6513753
0.12706402 0.37594634 1.332 6707786
-0.73599148 0.38821632 1.3310001 6383452
-0.72466165 0.38573337 1.33325 6382939
-0.71478707 0.38557211 1.3363333 6515038
-0.70516449 0.38394892 1.3380001 5989208
-0.69937772 0.38423589 1.3390001 5461070
0.12706402 0.38536757 1.332 6642763
-0.77451873 0.39493701 1.3325001 6842198
-0.76424205 0.39612255 1.3365 6446162
-0.75507253 0.39627072 1.337 6578261
-0.74561596 0.39627072 1.337 6513752
-0.73328018 0.39641893 1.3375001 6514011
-0.72409177 0.39656714 1.3380001 6711389
-0.71410996 0.39475894 1.3390001 6646109
-0.70569152 0.39054972 1.3390001 6186585
0.12706402 0.39478877 1.332 6839372
-0.80593455 0.40122017 1.3325001 6053202
-0.72463298 0.40317735 1.3390001 6711389
-0.71831918 0.40317735 1.3390001 6842718
0.12706402 0.40420997 1.332 6642250
-0.81628066 0.41425231 1.3340001 6118475
0.12706402 0.41677159 1.332 6839117
0.12706402 0.42619279 1.332 6576200
0.12706402 0.43561399 1.332 6707785
0.12706402 0.44503522 1.332 6707786
0.12503088 0.45573226 1.3326668 6641991
0.11467434 0.46457422 1.3340001 6444097
0.1240143 0.46422595 1.3330001 6641735
-0.68675017 0.49788454 1.3390001 6711132
-0.68399352 -0.55308485 1.3460001 8885131
-0.69668716 -0.54039115 1.3460001 8555913
-0.68828875 -0.54511321 1.342 8950922
-0.75733155 -0.53838378 1.3410001 8686980
-0.74412972 -0.53166378 1.34 8687750
-0.73601663 -0.53265572 1.3425 8556164
-0.72578424 -0.53444111 1.3470001 8621446
-0.7162593 -0.53444117 1.3470001 8621959
-0.74111485 -0.52769756 1.3460001 8490373
-0.7578963 -0.51347339 1.342 8294021
-0.76365483 -0.50676757 1.3410001 8490886
-0.86262304 -0.2414611 1.3425 7569780
-0.84964162 -0.2422705 1.3470001 7635316
-0.857566 -0.23548108 1.3445001 7569522
-0.84964162 -0.23591895 1.3470001 7635314
-0.86391521 -0.2259703 1.3445001 7306350
-0.87569737 -0.21702534 1.348 7701107
-0.81788391 -0.20416129 1.3470001 7306610
-0.8275038 -0.1907475 1.342 7306097
-0.83120358 -0.1852441 1.348 7306097
-0.82117587 -0.18441956 1.342 7240304
-0.81545508 -0.18455699 1.3430001 7240558
-0.69480062 -0.17259558 1.3485 7899261
-0.69187897 -0.15357669 1.3490001 7570298
-0.69358152 -0.14623354 1.34 7570298
-0.68576717 -0.14470311 1.3453335 7701627
-0.67915702 -0.14085475 1.3490001 8359552
0.29976368 -0.14054151 1.3460001 10990258
-0.68196082 -0.13379587 1.342 7767677
-0.67865354 -0.13439408 1.348 8227714
0.29998639 -0.13429438 1.3470001 10858672
-0.6809445 -0.12411869 1.34 7833470
-0.67815018 -0.12476708 1.3470001 7964799
0.30020911 -0.12803783 1.348 10924465
-0.68145269 -0.11472645 1.3410001 7701370
-0.67865354 -0.11532532 1.348 7767163
0.36269218 -0.11498312 1.3440001 10923695
-0.68221492 -0.10535813 1.3425 7701627
-0.67915702 -0.10586943 1.3490001 7437940
0.36834311 -0.10528201 1.3415 10726316
-0.68246901 -0.095899545 1.3430001 7964542
0.36504424 -0.095756732 1.3410001 10594730
-0.69461673 -0.08317221 1.342 7438198
-0.68323123 -0.086495847 1.3445001 7832956
-0.68588352 -0.073761456 1.3435001 7635318
-0.6863929 -0.064307913 1.3445001 7635576
-0.68613881 -0.054777913 1.3440001 7372661
-0.68562829 -0.045238145 1.3430001 7372666
-0.68457514 -0.036793005 1.3430001 7372662
-0.67915702 -0.032718319 1.3490001 6845548
-0.6829772 -0.026259661 1.3440001 7635577
-0.67865354 -0.026337814 1.348 6911088
-0.68221492 -0.016736055 1.3425 7503991
-0.67497194 -0.016793329 1.3470001 7173999
-0.66300762 -0.013630364 1.3485 7436400
-0.6811986 -0.0040693525 1.3405001 7306867
-0.6734699 -0.0040799743 1.3440001 7173741
-0.66470599 -0.0040845266 1.3455 7305327
-0.65579623 -0.0040889094 1.34675 7305583
-0.64735216 -0.00091348629 1.3490001 7174511
-0.84203792 0.0054313275 1.345 6385247
-0.67563283 0.0054192129 1.342 7042157
-0.6666373 0.0054232511 1.3430001 7239021
-0.65494347 0.005431328 1.345 7305584
-0.64687228 0.0054434421 1.348 7174511
-0.90411252 0.0180886 1.3430001 6910306
-0.8471185 0.014917547 1.3430001 6449757
-0.83953375 0.014900041 1.3410001 6516063
-0.74139017 0.014959973 1.3465002 6582882
-0.67512941 0.014900041 1.3410001 7108461
-0.66638792 0.014916707 1.3425 7239278
-0.65482235 0.014942297 1.3447502 7239277
-0.64711225 0.014984553 1.3485 7108205
-0.67512941 0.024384907 1.3410001 7042155
-0.66638792 0.024412181 1.3425 7304814
-0.65543044 0.024475826 1.3460001 7304814
-0.6809445 0.037003778 1.34 6581858
-0.67512941 0.033869773 1.3410001 6911080
-0.66675961 0.033927187 1.34325 7239533
-0.65591621 0.034022495 1.3470001 7173484
-0.68372983 0.047582477 1.3413334 6647911
-0.67402381 0.047642652 1.3430001 6976618
-0.66624051 0.045576435 1.3443333 7042155
-0.65934014 0.046742909 1.3475001 7108205
-0.69409919 0.056001123 1.3410001 6714727
-0.68537891 0.056063764 1.3425 6779750
-0.67347109 0.056126408 1.3440001 6910824
-0.66495305 0.056209929 1.3460001 6976616
-0.65958482 0.056293447 1.348 7239275
-0.70358157 0.068647608 1.3410001 6780519
-0.69655037 0.064466238 1.3416667 6714725
-0.68614471 0.065633669 1.3440001 6648677
-0.67384636 0.065669701 1.3447502 7042409
-0.66251361 0.065803409 1.3475001 7107690
-0.70410621 0.075026765 1.342 6648933
-0.69565195 0.075138576 1.3440001 6714212
-0.68665636 0.075194478 1.345 6648162
-0.67397213 0.075194478 1.345 6976361
-0.66495305 0.075250387 1.3460001 6910569
-0.65958482 0.075362198 1.348 7042155
-0.71253705 0.084392741 1.34 6583396
-0.70450032 0.084566526 1.3427501 6714725
-0.69616956 0.084707633 1.345 6780262
-0.68665636 0.084707633 1.345 6779492
-0.6738475 0.084691301 1.3447502 6976103
-0.66470599 0.084737949 1.3455 6910567
-0.65934014 0.084863916 1.3475001 7041896
-0.71306884 0.093940586 1.3410001 6583141
-0.70463097 0.094080687 1.3430001 6517346
-0.69616956 0.094220787 1.345 6714212
-0.68665636 0.094220787 1.345 6647650
-0.67347109 0.094150744 1.3440001 6911082
-0.66445899 0.094220787 1.345 6844776
-0.65909553 0.094360903 1.3470001 6910823
-0.7320385 0.10342309 1.3410001 6254175
-0.71253705 0.10334832 1.34 6648934
-0.70463097 0.1035797 1.3429999 6714470
-0.69616956 0.10373395 1.345 6648419
-0.68665636 0.10373395 1.345 6713699
-0.67397213 0.10373394 1.345 7041637
-0.66470599 0.1037737 1.3455 6910310
-0.65934014 0.10392795 1.3475001 6976359
-0.70423794 0.11617955 1.34225 6648675
-0.6942265 0.11750481 1.3453335 6648420
-0.68593818 0.11541885 1.3456668 6647649
-0.67459792 0.11652695 1.3462502 6910309
-0.66382074 0.11561847 1.348 6910311
-0.70384276 0.12560362 1.3415 6451553
-0.69565195 0.1258377 1.3440001 6714725
-0.68691051 0.12597814 1.3455 6516320
-0.67472267 0.12607178 1.3465002 6910823
-0.66594106 0.12621221 1.348 6779237
-0.70068347 0.13509084 1.3415 6319968
-0.69539315 0.13529226 1.3435001 6910821
-0.68665522 0.1354433 1.345 6516064
-0.67472267 0.13559555 1.3465002 6910310
-0.66643512 0.1358473 1.3490001 6976103
-0.69725835 0.14452654 1.3410001 6714212
-0.68639994 0.14490375 1.3445001 6516064
-0.67472267 0.14511931 1.3465002 6844773
-0.66643512 0.14538874 1.3490001 6910056
-0.69725835 0.1540114 1.3410001 6582112
-0.68639994 0.15441337 1.3445001 6516320
-0.67472267 0.15464307 1.3465002 6779237
-0.66643512 0.1549302 1.3490001 6976103
-0.70332044 0.16659456 1.3405001 6516833
-0.69513434 0.16374011 1.3430001 6713442
-0.68691051 0.16404492 1.3455 6319455
-0.674972 0.1642278 1.3470001 6975590
-0.66643512 0.16447164 1.3490001 7172712
-0.74001366 0.17653681 1.3440001 6515548
-0.71253705 0.1760114 1.34 6581856
-0.70357627 0.17429458 1.3430001 6516577
-0.69338316 0.17359564 1.3457501 6516063
-0.68450165 0.17375746 1.3470001 6910565
-0.67653483 0.17282629 1.348 6844516
-0.72517413 0.18864846 1.34 6319454
-0.71676219 0.1857684 1.342 6516578
-0.70594263 0.18625173 1.3455001 6384991
-0.69454306 0.18659779 1.348 6515807
-0.68551803 0.18355455 1.3490001 6976101
-0.72309017 0.19525798 1.342 6516833
-0.7146641 0.19554898 1.3440001 6385247
-0.70672965 0.19598547 1.3470001 6516320
-0.69823998 0.19627647 1.3490001 6581343
-0.72378486 0.20359199 1.3413334 6385248
-0.71641892 0.206008 1.3433334 6384992
-0.70672965 0.20551276 1.3470001 6384478
-0.69823998 0.20581792 1.3490001 6384477
-0.71676219 0.21424186 1.342 6516063
-0.70620495 0.21488045 1.3460001 6515550
-0.69823998 0.21535937 1.3490001 6515550
-0.71517497 0.2225132 1.3410001 6516063
-0.70594263 0.22431614 1.3455 6515550
-0.69577456 0.22584982 1.3483334 6449500
-0.71253705 0.23287816 1.34 6581341
-0.70489323 0.23665276 1.3435001 6647650
-0.69454187 0.23426849 1.348 6251608
-0.7043674 0.24597326 1.3425001 6712929
-0.69376898 0.24353039 1.3465 6580829
-0.68526393 0.2438921 1.3485 6909023
-0.78612626 0.2531493 1.3470001 7106142
-0.70270258 0.25419208 1.3413334 6252635
-0.6937089 0.25475904 1.3443333 6317915
-0.68610758 0.25719103 1.3460001 6515037
-0.67686892 0.25770161 1.3486667 6711389
-0.77572238 0.26447082 1.34 6777177
-0.69725835 0.26466817 1.3410001 6317400
-0.68639994 0.26535895 1.3445001 6449759
-0.67547309 0.26604974 1.348 6711902
-0.69384038 0.27404964 1.3405001 6054999
-0.68576121 0.27461243 1.34325 6449758
-0.67472148 0.27527627 1.3465002 6777952
-0.87681884 0.28342637 1.34 5330758
-0.7840836 0.2873283 1.3435001 6646617
-0.69358152 0.28342637 1.34 5988436
-0.68600696 0.28588665 1.3416667 6252124
-0.6744709 0.28469545 1.3460001 6514267
-0.66643512 0.28533 1.3490001 6842973
-0.68389767 0.29432079 1.3416667 6514782
-0.67434502 0.29416043 1.3457501 6579803
-0.66643512 0.29487145 1.3490001 6514010
-0.8927747 0.30351025 1.345 6515284
-0.79071283 0.30328462 1.3440001 6645843
-0.68461192 0.30576926 1.3410001 6515296
-0.67519385 0.30569956 1.3453335 6646112
-0.66643512 0.3044129 1.3490001 6645339
-0.79586399 0.31548917 1.342 6449239
-0.68486601 0.31537163 1.3415 6449500
-0.67358017 0.31439075 1.3463335 6449244
-0.89542985 0.32349581 1.3490001 5528905
-0.81666946 0.32887867 1.345 5988686
-0.80278975 0.32205698 1.3430001 6185297
-0.68473899 0.32479894 1.3412501 6579803
-0.6744709 0.32594979 1.3460001 6448217
-0.8356958 0.33522078 1.345 5987918
-0.68461192 0.33422384 1.3410001 6645598
-0.67396986 0.33522081 1.345 6777183
-0.66643512 0.33621773 1.3490001 6711132
0.1157059 0.33547002 1.3460001 6115647
0.1221434 0.33571929 1.3470001 6116417
-0.95477396 0.34738767 1.3430001 6843477
-0.88139933 0.34842235 1.3470001 5856848
-0.85472214 0.34790498 1.345 6250833
-0.84964162 0.34207079 1.3470001 5856848
-0.68145269 0.34370869 1.3410001 6382424
