# .PCD v0.7 - Point Cloud Data file format
VERSION 0.7
FIELDS x y z rgb
SIZE 4 4 4 4
TYPE F F F U
COUNT 1 1 1 1
WIDTH 1198
HEIGHT 1
VIEWPOINT 0 0 0 1 0 0 0
POINTS 1198
DATA ascii
-0.14356732 0.25552988 1.4315001 7032107
-0.13367657 0.25597617 1.434 7031593
-0.12370386 0.25633317 1.4360001 6900007
-0.11378663 0.25347602 1.439 6768422
-0.056111202 0.25686869 1.439 5783841
-0.045933187 0.25686869 1.439 5652257
-0.035755172 0.25686869 1.439 5390113
-0.025577154 0.25686869 1.439 5586723
-0.015399138 0.25686869 1.439 5257758
0.0049436614 0.25624391 1.4355001 5257758
0.015092843 0.25615466 1.4350001 5191967
0.92662686 0.25561914 1.432 8347969
-0.22096148 0.26537651 1.4300001 7294767
-0.2143684 0.26556206 1.4310001 6965802
-0.20431712 0.26565486 1.4315001 7097388
-0.19419336 0.26565605 1.4315001 7163438
-0.18400526 0.26556325 1.4310001 7031851
-0.17376114 0.26537651 1.4300001 6900523
-0.16364679 0.26874796 1.4300001 7163695
-0.15353242 0.26537651 1.4300001 7163694
-0.14356732 0.26565486 1.4315001 7228971
-0.13358337 0.26593322 1.4330001 7294764
-0.12480368 0.26529875 1.4356667 6965800
-0.11378663 0.26365402 1.439 6834214
-0.066289224 0.26365402 1.439 6177829
-0.056024063 0.26662737 1.4367499 5783586
-0.045837425 0.2664876 1.4360001 5652257
-0.035680633 0.2664876 1.436 5520927
-0.025523834 0.2664876 1.4360001 5520927
-0.015367035 0.2664876 1.4360001 5323550
-0.0052211205 0.26365402 1.439 5191965
0.004943118 0.26630437 1.4350001 5257759
0.015092843 0.26630437 1.4350001 5191967
-0.2143684 0.27568352 1.4310001 7426353
-0.20438968 0.27587616 1.432 7294252
-0.19426119 0.27587616 1.432 7360045
-0.18406957 0.27577984 1.4315001 7097132
-0.17388266 0.27568352 1.4310001 7097388
-0.16364679 0.27549085 1.4300001 7097902
-0.15353242 0.27549085 1.4300001 7097902
-0.14356732 0.27577984 1.4315001 7228716
-0.13367657 0.27626145 1.434 7097386
-0.12263355 0.27451655 1.4366668 6834214
-0.11378663 0.27383202 1.439 6768423
-0.073049173 0.2737357 1.4385 6111780
-0.06622012 0.27354541 1.4375 5980195
-0.055936918 0.27635777 1.4345 5914916
-0.045773588 0.27626145 1.434 5652257
-0.035606094 0.27606881 1.4330001 5586464
-0.02547051 0.27606881 1.4330001 5652257
-0.015324229 0.27587616 1.432 5257501
-0.0052211205 0.27043936 1.439 5191965
-0.93570971 0.28897667 1.4300001 5988688
-0.21429351 0.2857039 1.4305 7294764
-0.20435339 0.28595415 1.4317501 7228971
-0.19439685 0.2862044 1.4330001 7163179
-0.18416542 0.28605518 1.43225 7163436
-0.17394342 0.28590599 1.4315001 7229229
-0.16379043 0.28585547 1.4312501 7294765
-0.15369347 0.28590599 1.4315001 7294765
-0.14366761 0.28610453 1.4325 7228972
-0.13372318 0.28650516 1.4345 7163179
-0.12374812 0.28351665 1.4365001 7031594
-0.11378663 0.28401005 1.439 6768423
-0.076388717 0.283714 1.4375 6308901
-0.066128001 0.28670251 1.4355001 5980194
-0.055878431 0.28620321 1.4330001 5849122
-0.045693789 0.28590363 1.4315001 5652257
-0.036681 0.28467879 1.4310001 5652257
-0.025417186 0.28223377 1.4300001 5586464
-0.96061772 0.29716715 1.437 6054479
-0.94159871 0.29758075 1.439 6185297
-0.2142186 0.29571959 1.4300001 7491631
-0.20431714 0.29602978 1.4315001 7425838
-0.19426119 0.29613316 1.432 7491631
-0.18413268 0.29613316 1.432 7294765
-0.17400417 0.29613316 1.432 7228972
-0.16387567 0.29613316 1.432 7294765
-0.15374716 0.29613316 1.432 7426351
-0.14376791 0.29644337 1.4335001 7097645
-0.1337698 0.29675356 1.4350001 7294767
-0.12374812 0.29367697 1.4365001 6965800
-0.11370756 0.29398364 1.4380001 6768421
-0.10357261 0.29408467 1.4385 6768423
-0.093398139 0.29408467 1.4385 6440231
-0.086554945 0.29388022 1.4375 6111523
-0.07630901 0.29357359 1.436 6243109
-0.066058889 0.29654676 1.434 5980450
-0.055858932 0.29623657 1.4325001 5783585
-0.045645908 0.29571959 1.4300001 5652003
-1.0187573 0.30985406 1.4330001 5858637
-0.95052296 0.3028855 1.432 5921866
-0.92896676 0.30920538 1.4300001 6448464
-0.20410421 0.30246249 1.4300001 7360044
-0.19412555 0.30267403 1.4310001 7557422
-0.1839398 0.3059397 1.4305 7294251
-0.1738219 0.3059397 1.4305 7360302
-0.16378926 0.3061007 1.4312501 7426094
-0.15369347 0.30615357 1.4315001 7360302
-0.14366761 0.30636862 1.4325001 7228972
-0.13362998 0.30658129 1.4335001 7163179
-0.12366197 0.30362582 1.4355001 6965802
-0.11354942 0.30373156 1.4360001 6571558
-0.10346462 0.30394307 1.437 6637351
-0.093300752 0.30394307 1.437 6571558
-0.086464629 0.30373156 1.4360001 6176546
-0.076229297 0.30341429 1.4345 6177316
-0.066035859 0.30658129 1.4335001 6045730
-0.055858932 0.30636859 1.4325 5914658
-0.045645908 0.30583394 1.4300001 5783586
-0.92896676 0.31594831 1.4300001 6382674
-0.16027534 0.31594831 1.4300001 7491631
-0.15353242 0.31594831 1.4300001 7426351
-0.14356732 0.31627971 1.4315001 7228972
-0.13349015 0.31639019 1.432 7163179
-0.12353275 0.31345001 1.434 6768421
-0.11343081 0.31355929 1.4345 6834215
-0.10449637 0.31268618 1.4356667 6702629
-0.095448039 0.31486961 1.4353334 6439972
-0.086404413 0.31366977 1.4350001 6374179
-0.076215416 0.31350523 1.43425 6177570
-0.066058889 0.31683207 1.434 6045730
-0.055858932 0.31650066 1.4325001 5914401
-0.04567783 0.31616926 1.4310001 5783073
-1.011294 0.32989487 1.432 5463114
-0.14344256 0.3261191 1.4302502 7162923
-0.13339692 0.32629067 1.4310001 7162922
-0.12451496 0.32546854 1.4323335 6768421
-0.11664884 0.32663155 1.4325001 6702629
-0.10662951 0.32359383 1.434 6571558
-0.096486852 0.32359383 1.434 6439973
-0.086344197 0.32359383 1.434 6373925
-0.076201543 0.32359383 1.434 6045987
-0.066058889 0.32359383 1.434 5980450
-0.055877246 0.32336819 1.4330001 5914658
-0.045693789 0.32640588 1.4315001 5652002
-0.038903002 0.32606268 1.4300001 5586209
-0.14004661 0.33617702 1.4300001 7228459
-0.13339692 0.3364121 1.4310001 7162664
-0.12664931 0.3364121 1.4310001 6768421
-0.11553662 0.33455157 1.4326668 6571556
-0.10659233 0.33361894 1.4335001 6506281
-0.096486852 0.33373648 1.434 6308903
-0.086374305 0.33385402 1.4345 6111523
-0.076228119 0.33385402 1.4345 6045987
-0.066058889 0.33373648 1.434 5914657
-0.055897921 0.33362013 1.4335001 5914916
-0.045709748 0.33664718 1.432 5520417
-0.038930207 0.3364121 1.4310001 5586210
-1.0139618 0.34990737 1.4310001 5923917
-0.14229424 0.34741521 1.4299999 7162668
-0.13339692 0.34653354 1.4310001 7162667
-0.12664931 0.34315974 1.4310001 6833701
-0.11664884 0.34351945 1.4325001 6571301
-0.10655515 0.34363934 1.4330001 6374949
-0.096486852 0.34387913 1.434 6243364
-0.086404413 0.34411895 1.4350001 6045730
-0.076254688 0.34411895 1.4350001 6045730
-0.066058889 0.34387913 1.434 5914659
-0.055897921 0.34375924 1.4335001 5849637
-0.045709748 0.34339952 1.432 5652003
-0.035545152 0.34641248 1.4305 5520672
-1.0105879 0.356655 1.4310001 5726286
-1.0073477 0.35790119 1.4360001 5593928
-0.95516938 0.35864887 1.439 6185038
-0.93767273 0.35039639 1.4330001 6251088
-0.15353242 0.35640576 1.4300001 7360043
-0.14346704 0.35653037 1.4305 7228459
-0.13339692 0.356655 1.4310001 7096873
-0.12451496 0.35473648 1.4323335 6834215
-0.11553663 0.35256723 1.4326668 6702630
-0.10662951 0.35402179 1.434 6636837
-0.096503079 0.35408291 1.43425 6373924
-0.086404413 0.35426867 1.4350001 6308133
-0.076254688 0.3542687 1.4350001 6045731
-0.066058889 0.35402179 1.434 5914659
-0.055897921 0.35389838 1.4335001 5783330
-0.045709748 0.35352802 1.432 5652000
-0.035545152 0.35653037 1.4305 5652257
-1.0072117 0.36340261 1.431 5462085
-0.99545604 0.36403745 1.4335001 6053709
-0.98497206 0.3639105 1.4330001 6185038
-0.97684973 0.36340261 1.4310001 6250831
-0.16027534 0.36989155 1.4300001 7294250
-0.15353242 0.36314863 1.4300001 7228459
-0.14351836 0.36340261 1.4310001 7162668
-0.13349015 0.36365655 1.432 6965802
-0.12340353 0.36378354 1.4325001 6900009
-0.1133122 0.3639105 1.4330001 6768423
-0.10662951 0.36416444 1.434 6636583
-0.096486852 0.36416444 1.434 6439461
-0.086344197 0.36416444 1.434 6045730
-0.076201543 0.36416444 1.434 6111525
-0.06601283 0.3639105 1.4330001 5980452
-0.055858932 0.36378354 1.4325001 5914659
-0.045661867 0.36664706 1.4305 5651745
-0.038903002 0.36314863 1.4300001 5717280
-0.16370283 0.37676618 1.4305 7294250
-0.15363979 0.37352407 1.4310001 7228458
-0.14356732 0.37365454 1.4315001 7162666
-0.13349015 0.37378508 1.432 7031593
-0.12340353 0.37391558 1.4325001 6702629
-0.1133122 0.37404609 1.4330001 6636837
-0.10655515 0.37404609 1.4330001 6571044
-0.096453205 0.3741754 1.4335001 6504997
-0.086314097 0.37417543 1.4335001 6177059
-0.076121837 0.37391439 1.4325001 6045731
-0.065943733 0.37365338 1.4315001 6111525
-0.055790104 0.37345701 1.4307501 5783074
-0.17376114 0.38337737 1.4300001 7491629
-0.16370283 0.38351142 1.4305 7425837
-0.15363979 0.3836455 1.4310001 7294252
-0.14351836 0.3836455 1.4310001 7163181
-0.13349015 0.38391358 1.432 7031593
-0.1267378 0.38391358 1.432 6768421
-0.11660929 0.38391358 1.432 6636837
-0.10648079 0.38391358 1.432 6768423
-0.096352279 0.38391358 1.432 6505251
-0.086223774 0.38391358 1.432 6571044
-0.076042131 0.3836455 1.4310001 6176804
-0.065874629 0.38337737 1.4300001 6045732
-0.17376114 0.39349174 1.4300001 7294762
-0.16376123 0.39376694 1.4310001 7294765
-0.15363979 0.39376694 1.4310001 7163180
-0.14349388 0.39369756 1.4307501 7031851
-0.13335031 0.39362818 1.4305 6900264
-0.12664931 0.39376694 1.4310001 6637093
-0.11654764 0.39383513 1.4312501 6636837
-0.10644361 0.39390332 1.4315001 6571044
-0.096302405 0.39383513 1.4312501 6374180
-0.086133458 0.39362818 1.4305 6308132
-0.079360448 0.39349174 1.4300001 6373925
-0.17376114 0.40360609 1.4300001 7360043
-0.16370283 0.4037472 1.4305 7228971
-0.15353242 0.40360609 1.4300001 7163179
-0.14341807 0.40360609 1.4300001 7031593
-0.1333037 0.40360609 1.4300001 6965800
-0.12656079 0.40360609 1.4300001 6834216
-0.11648597 0.4037472 1.4305 6702117
-0.10640644 0.40388834 1.4310001 6570790
-0.096285 0.40388834 1.4310001 6504997
-0.08610335 0.40360609 1.4300001 6439204
-0.17376114 0.41372043 1.4300001 7294251
-0.16373202 0.41393802 1.4307501 7360045
-0.1535861 0.41386628 1.4305 7097130
-0.14341807 0.41372043 1.4300001 6965800
-0.1333037 0.41372043 1.4300001 6900264
-0.12656079 0.41372043 1.4300001 6768421
-0.11650692 0.41393802 1.4307501 6571043
-0.10640644 0.41400975 1.4310001 6505251
-0.096285 0.41400975 1.4310001 6439715
-0.08610335 0.41372043 1.4300001 6439460
-0.079360448 0.41709191 1.4300001 6439718
-0.17376114 0.42383483 1.4300001 7294250
-0.16376123 0.42413121 1.4310001 7360045
-0.15363979 0.42413121 1.4310001 7228459
-0.14351836 0.42413121 1.4310001 7031080
-0.13339692 0.42413121 1.4310001 7031080
-0.12664931 0.42413121 1.4310001 6768421
-0.11652787 0.42413121 1.4310001 6571043
-0.10640644 0.42413121 1.4310001 6571044
-0.096285 0.42413121 1.4310001 6439461
-0.08610335 0.42383483 1.4300001 6571304
-0.079360448 0.42383483 1.4300001 6373925
-0.1738219 0.43410212 1.4305 7490859
-0.16384646 0.43448082 1.4317501 7293995
-0.15380085 0.43470901 1.4325001 7097130
-0.1436688 0.43470901 1.4325001 7162666
-0.13353676 0.43470901 1.4325001 7031337
-0.1267378 0.43455613 1.432 6702628
-0.11660929 0.43455613 1.432 6439715
-0.10648079 0.43455613 1.432 6439972
-0.096285 0.43425268 1.4310001 6374181
-0.086163566 0.43425268 1.4310001 6308388
-0.079360448 0.43394917 1.4300001 6308132
-0.17388266 0.44437411 1.4310001 7359273
-0.1639317 0.44483989 1.4325001 7293738
-0.15385452 0.44499516 1.4330001 7228461
-0.14371894 0.44499516 1.4330001 7096873
-0.13358337 0.44499516 1.4330001 6834214
-0.1268263 0.44499516 1.4330001 6702628
-0.11660929 0.44468462 1.432 6505251
-0.10648079 0.44468462 1.432 6571044
-0.096285 0.44437411 1.4310001 6373925
-0.08610335 0.44406354 1.4300001 6308132
-0.18050405 0.45080644 1.4300001 7162664
-0.17388266 0.45449549 1.4310001 7359786
-0.1639317 0.45497188 1.4325001 7293993
-0.15385452 0.4551307 1.4330001 7228457
-0.1437446 0.45520949 1.4332501 7031336
-0.13358337 0.4551307 1.4330001 6900006
-0.12678206 0.45497072 1.4325001 6702371
-0.11656858 0.45465311 1.4315001 6702373
-0.10636926 0.45433551 1.4305 6636837
-0.096217707 0.45080644 1.4300001 6505251
-0.17376114 0.46429226 1.4300001 7293482
-0.16381727 0.46477926 1.4315001 7359273
-0.15374716 0.46494159 1.432 7293480
-0.14361864 0.46494159 1.432 7162921
-0.13349015 0.46494159 1.432 6899496
-0.12664931 0.46461695 1.4310001 6767910
-0.11981789 0.46429226 1.4300001 6702630
-1.0276613 0.47978276 1.4360001 5659203
-0.16370283 0.47119987 1.4305 7490859
-0.15363979 0.47136459 1.4310001 7359273
-0.14346939 0.47119987 1.4305 7096871
-0.1333037 0.47103515 1.4300001 6833701
-0.69533974 -0.59540856 1.4490001 6316128
-0.69485986 -0.58475596 1.4480001 6184281
-0.69533974 -0.57491112 1.4490001 6316124
-0.69781089 -0.5645501 1.4400001 6645093
-0.69926465 -0.55551761 1.4430001 6644832
-0.70120305 -0.54341137 1.447 6447451
-0.70217228 -0.53391606 1.4490001 6316381
0.40982094 -0.5317052 1.4430001 12039866
-0.70217228 -0.52366734 1.4490001 6250592
0.37710208 -0.52671981 1.4480001 12565440
0.3828693 -0.5252648 1.4440001 12368061
0.39444375 -0.52708358 1.4490001 12039866
0.40641886 -0.52490103 1.4430001 11908280
-0.70217228 -0.51341861 1.4490001 6382174
-0.70217228 -0.50658607 1.4490001 6185565
-0.84332025 -0.49156034 1.4450001 7899263
-0.70217228 -0.49975359 1.4490001 6184542
-0.91208738 -0.47144547 1.4460001 8030585
-0.84215307 -0.47046736 1.4430001 8424578
-0.81747758 -0.47534603 1.4475 8490376
-0.70509028 -0.47321033 1.441 6250588
0.36886784 -0.47369939 1.4425001 12171709
-0.91397971 -0.4655911 1.4490001 7965308
-0.84555519 -0.46366319 1.4430001 8358017
-0.83592778 -0.46398452 1.4440001 8423810
-0.82400119 -0.46302056 1.441 8490373
-0.81719518 -0.46494845 1.447 8621959
-0.80645186 -0.46269923 1.4400001 8556426
-0.70557958 -0.46334186 1.442 6184795
-0.83577603 -0.45378458 1.4476668 8424578
-0.82571673 -0.45717558 1.444 8686981
-0.81775999 -0.45503044 1.4480001 8621704
-0.70557958 -0.45654237 1.442 6250588
-0.87860274 -0.44447923 1.447 8030587
-0.83708555 -0.44417208 1.4460001 8424580
-0.82324916 -0.44510749 1.4416667 8424580
-0.70509028 -0.44603592 1.441 6250333
-0.83766443 -0.43765616 1.447 8227199
-0.81380671 -0.43584144 1.4410001 8621706
-0.70217228 -0.43142858 1.4490001 5921621
-0.87495965 -0.42904666 1.4410001 7766648
-0.8501339 -0.42342398 1.4450001 8423810
-0.82739627 -0.42904666 1.4410001 8424578
-0.70217228 -0.4245961 1.4490001 5790035
-0.85358495 -0.41491106 1.447 8161662
-0.84448749 -0.41718698 1.447 8292992
-0.70192993 -0.41420323 1.4485002 5790034
0.31521606 -0.4168987 1.4460001 12434881
-0.88359016 -0.40951315 1.4440001 7832695
-0.8619678 -0.40894592 1.442 8095613
-0.85368633 -0.40478793 1.4433335 8096125
-0.84098577 -0.4052673 1.441 8293248
-0.84778064 -0.39507279 1.4410001 8030333
-0.84448749 -0.3830716 1.447 8227201
-0.8347699 -0.38174793 1.442 8030335
-0.70460099 -0.38121846 1.4400001 6119000
-0.88542581 -0.37624854 1.447 8030074
-0.84565479 -0.37676862 1.4490001 8029820
-0.83419108 -0.37468845 1.4410001 8292994
-0.70460099 -0.37442842 1.4400001 5987414
-0.88297826 -0.36840427 1.4430001 7964027
-0.8473084 -0.36576575 1.4460001 8029821
-0.82768333 -0.36461923 1.4415001 8227459
-0.70460099 -0.36763835 1.4400001 6119002
-0.84555751 -0.35479587 1.4430001 8029821
-0.70217228 -0.35627115 1.4490001 5263436
-0.85576141 -0.34118745 1.4430001 8030074
-0.84551722 -0.34524599 1.441 8029820
-0.70071846 -0.3453083 1.4460001 4803398
-0.69926471 -0.33438325 1.4430001 4934471
-0.69878006 -0.32395229 1.442 4933956
-0.69926471 -0.31397063 1.4430001 4933699
-0.70071846 -0.30098668 1.4460001 4671556
-0.69974929 -0.30737931 1.4440001 4802883
-0.70168763 -0.29457518 1.4480001 4473918
-0.70217228 -0.28794613 1.4490001 4868676
-0.70217228 -0.27428114 1.4490001 4672326
-0.70168769 -0.26385254 1.4480001 5000520
-0.70071846 -0.2532582 1.4460001 4869705
-0.70023388 -0.24626943 1.4450001 5132877
-0.69926471 -0.23572224 1.4430001 4935238
-0.69926471 -0.22551596 1.4430001 4673094
-0.84215307 -0.21530965 1.4430001 7570039
-0.83534884 -0.21530965 1.4430001 7832954
-0.69926471 -0.21530965 1.4430001 4672837
-0.85813355 -0.20567186 1.447 7569269
-0.69926471 -0.20510332 1.4430001 4803910
-0.85516834 -0.19816171 1.442 7634292
-0.69902241 -0.19483067 1.4425001 4474433
-0.69878006 -0.18456271 1.442 4277566
-0.69698876 -0.17334723 1.443 4145724
-0.69437993 -0.16473347 1.447 4276796
-0.69437993 -0.15449886 1.447 4079418
-0.69485986 -0.14436397 1.4480001 4013626
-0.69731021 -0.13485809 1.4436668 4080188
-0.69926471 -0.12345286 1.4430001 4276798
-0.70071846 -0.11007281 1.4460001 4211003
-0.69974929 -0.11672949 1.4440001 4079162
-0.70120305 -0.10332587 1.447 4079417
-0.70168763 -0.096569486 1.4480001 3882810
-0.70217228 -0.089803681 1.4490001 3751992
-0.70460099 -0.075665772 1.4400001 4145980
-0.70509028 -0.065526158 1.4410001 4145211
-0.70557958 -0.055372391 1.442 4080441
-0.70557958 -0.045173153 1.442 3817015
-0.70557958 -0.034973916 1.442 3883062
-0.70557958 -0.024774678 1.442 3947831
-0.70557958 -0.014575443 1.442 3947574
-0.70557958 -0.0043762075 1.442 3816245
-0.70557958 0.0058230292 1.442 3816245
-0.70606887 0.016033377 1.4430001 3685683
0.92758304 0.019448949 1.4440001 5064254
-0.70606887 0.026239686 1.4430001 3751222
0.92886776 0.026294239 1.4460001 5196608
-0.70557958 0.03642074 1.442 3750447
0.92694062 0.03644364 1.4430001 5589312
-0.70557958 0.046619974 1.442 3750706
0.9256559 0.046587646 1.4410001 5458237
-0.70606887 0.053456511 1.4430001 3815988
-0.70704752 0.063753419 1.4450002 3618866
-0.70802611 0.074073896 1.447 3684656
-0.71139103 0.083900645 1.4400001 3750452
-0.70900476 0.084425032 1.4490001 3750706
-0.71139103 0.094085738 1.4400001 3947828
-0.71139103 0.10427083 1.4400001 3751219
-0.70900476 0.11517127 1.4490001 3816240
-0.70827079 0.12528899 1.4475 3684658
0.92565584 0.12472992 1.441 6837823
-0.70704752 0.13529424 1.4450001 3750706
0.92758304 0.13520062 1.4440001 6640447
-0.70314902 0.14541872 1.444 3618862
0.92790419 0.14546317 1.4445001 6246978
-0.69633538 0.15562737 1.444 3355176
0.9256559 0.15530406 1.4410001 6443331
-0.68660659 0.1625488 1.4450001 4340016
-0.67521 0.16906941 1.4425001 6640702
-0.65503263 0.17593223 1.4430001 7230518
-0.6470654 0.17654184 1.4480001 7164724
0.93762738 0.17666376 1.4490001 7756096
-0.62312025 0.18235654 1.4400001 7361072
-0.61378646 0.1826098 1.442 7689521
-0.60400581 0.18273644 1.4430001 7689521
-0.59400403 0.18279976 1.4435 7623728
-0.58399761 0.18286309 1.4440001 7689521
-0.57457656 0.18311635 1.4460001 7623727
-0.54597729 0.18947497 1.4425001 7886641
-0.53707802 0.18993469 1.4460001 7755055
0.93439192 0.18626517 1.444 7296058
-0.53135979 0.19032875 1.4490001 7952434
-0.50481832 0.19614074 1.4415001 7820845
-0.49548164 0.19648091 1.4440001 7820846
-0.48577115 0.19668502 1.4455001 8017456
-0.47604179 0.1968891 1.447 7952434
-0.4658072 0.1968891 1.447 7755055
-0.4552578 0.19675305 1.4460001 7754285
-0.44410932 0.19634485 1.4430001 7557417
-0.43299854 0.19593664 1.4400001 7623469
-0.42857632 0.19019739 1.4480001 7492396
-0.41262838 0.19593664 1.4400001 7426603
-0.40327936 0.19634485 1.4430001 7623214
-0.39416501 0.1968891 1.447 7557422
-0.38787732 0.19716126 1.4490001 7623215
0.015208539 0.19675305 1.4460001 4929565
0.93374485 0.19634485 1.4430001 5718061
-0.38573584 0.20286749 1.4410001 7557422
-0.3748447 0.20536548 1.4426666 7491629
-0.36400676 0.20564862 1.4446667 7491629
-0.35484216 0.20787132 1.4443334 7425836
-0.34412608 0.20598026 1.4470001 7360043
-0.33448887 0.20791982 1.4446669 7426092
-0.3254838 0.20683035 1.4450001 7426093
-0.31504637 0.2066884 1.444 7360043
-0.30472624 0.20661683 1.4435 7228971
-0.29451644 0.20661683 1.4435 6571816
-0.28440505 0.20668721 1.444 7360558
-0.27532491 0.20555317 1.4440001 7228972
-0.2639783 0.20668486 1.444 7228971
-0.25519025 0.20578939 1.4456668 7360557
-0.24570401 0.20772582 1.4433335 7360556
-0.23473991 0.20578939 1.4456668 7294765
-0.22523515 0.2076789 1.443 7294765
-0.21661545 0.20357141 1.4460001 7228970
-0.2057468 0.20293787 1.4415001 7360556
-0.19548212 0.20286749 1.4410001 7294763
-0.18554711 0.20314907 1.4430001 7492144
-0.17546232 0.20328985 1.4440001 7426865
-0.16547544 0.20357141 1.4460001 7229486
-0.15508923 0.20675525 1.4445001 7295279
-0.14812396 0.20995325 1.4430001 7163693
0.0083901864 0.20357141 1.4460001 5191967
0.015208539 0.20357141 1.4460001 4995358
0.93503898 0.20343062 1.4450001 7626560
-0.14127079 0.21327552 1.4425001 7097902
-0.13465539 0.21357124 1.4445 7163695
-0.12456532 0.21720809 1.4460001 6900523
-0.11457738 0.21765874 1.4490001 6703144
0.0049815536 0.21387167 1.4465001 5126686
0.015208539 0.21379893 1.4460001 5060893
0.93698025 0.21068074 1.4480001 8151358
-0.12426265 0.22348422 1.4425001 7031850
-0.11426108 0.22387153 1.4450001 6637351
-0.10421944 0.22425884 1.4475 6506023
-0.094079882 0.22449125 1.4490001 6374695
-0.01550198 0.22441378 1.4485002 5191965
-0.0052392627 0.2237166 1.4440001 5257760
0.0049741203 0.2237166 1.4440001 5191967
0.015187503 0.2237166 1.4440001 5191967
-0.12069768 0.2333618 1.4405 6703401
-0.11402386 0.23360363 1.4420002 6637351
-0.10398486 0.23396873 1.4442501 6637096
-0.093852639 0.23417181 1.4455001 6374950
-0.08365757 0.23425162 1.446 6374695
-0.073430039 0.23425162 1.4460001 6177317
-0.066611685 0.23425162 1.4460001 6111782
-0.056384157 0.23425162 1.4460001 5914660
-0.046172589 0.23433144 1.4465001 5652003
-0.035935901 0.23429152 1.4462501 5520673
-0.025701575 0.23425162 1.4460001 5520930
-0.015463347 0.23408963 1.4450002 5257758
-0.0052374485 0.2338478 1.4435 5257758
0.0049689533 0.23368579 1.4425 5257759
0.015171726 0.23368579 1.4425001 5126173
-0.11386571 0.24346706 1.4400001 6637351
-0.10382227 0.24380521 1.4420002 6571558
-0.093690321 0.24397428 1.4430001 6374695
-0.083541863 0.24414337 1.4440001 6243623
-0.073277697 0.24397428 1.4430001 6177831
-0.066473491 0.24397428 1.4430001 6112038
-0.056248859 0.24388975 1.4425001 5849124
-0.046060871 0.24397428 1.4430001 5652003
-0.035854563 0.24397428 1.4430001 5652003
-0.025648253 0.24397428 1.4430001 5586210
-0.015437772 0.24388975 1.4425001 5323551
-0.0052320058 0.2438052 1.442 5323551
0.93698025 0.24481966 1.4480001 8478526
-0.10376886 0.25387174 1.44125 6637095
-0.093657851 0.25409135 1.4425001 6440743
-0.083441198 0.2540479 1.44225 6177829
-0.073201522 0.25391519 1.4415001 6112549
-0.066358328 0.25373906 1.4405 5783841
-0.056170877 0.25034404 1.4405 5783589
-0.045997031 0.25043091 1.4410001 5652003
-0.035804868 0.25043091 1.4410001 5520930
-0.025612704 0.25043091 1.4410001 5455137
-0.015420541 0.25043091 1.4410001 5257760
-0.0052265637 0.25373906 1.4405 5126173
0.93309772 0.25060469 1.442 8282946
-0.10371545 0.26392886 1.4405 6637093
-0.093625389 0.26420367 1.442 6440742
-0.086825892 0.26420367 1.442 6309156
-0.076548129 0.26392886 1.4405 6177572
0.94120091 0.26457015 1.4440001 8282176
-0.10371544 0.2741175 1.4405 6637351
-0.093592927 0.2743066 1.4415001 6505765
-0.086765684 0.27421266 1.4410001 6374692
-0.079915412 0.27402234 1.4400001 6309156
-0.10368063 0.28420743 1.4400001 6900266
-0.093495533 0.28420743 1.4400001 6505765
-0.086705476 0.28420743 1.4400001 6505765
-1.0409157 0.30563518 1.4450001 6121296
-0.94552481 0.30563518 1.4450001 6053452
-0.94814223 0.31331372 1.4490001 6447694
-1.0140119 0.34322301 1.4455001 5989198
-0.94421613 0.34603739 1.4430001 6381647
-1.0101537 0.35210803 1.4400001 5988686
-1.0064991 0.35660577 1.4445001 6120272
-0.95431566 0.3540642 1.4480001 5922377
-1.0000339 0.36014426 1.4450001 6119502
-0.99528229 0.36089197 1.4480001 6315854
-0.96730262 0.36064273 1.447 5922123
-0.95583314 0.47432911 1.4400001 6118725
-0.94970226 0.4814533 1.4410001 6316104
-0.69302124 -0.59587473 1.4585001 5526613
-0.69278365 -0.58535683 1.4580001 5262415
-0.69325882 -0.57887876 1.4590001 5525585
-0.69677937 -0.56582904 1.4520001 5987674
-0.69869882 -0.55365682 1.4560001 6052693
0.41408104 -0.55098218 1.4580001 12039866
-0.69965863 -0.54410726 1.4580001 5987157
0.40720612 -0.54410726 1.4580001 12039866
-0.70013851 -0.53416097 1.4590001 5789527
0.36419949 -0.53465301 1.4510001 13289163
0.37180859 -0.53575844 1.4540001 12828612
0.40525109 -0.53465301 1.4510001 12039866
-0.70265681 -0.49326125 1.45 6053726
-0.70338368 -0.48350391 1.4515001 6184538
-0.90466762 -0.47291261 1.4505 8161659
-0.70411062 -0.4737277 1.4530001 5987416
-0.91215557 -0.46816164 1.457 8096892
-0.9052853 -0.46816164 1.457 7767415
-0.89964837 -0.46192464 1.4590001 8491138
-0.70459521 -0.46376967 1.4540001 5921623
-0.84711373 -0.45612678 1.4515001 8292992
-0.70411062 -0.45317364 1.4530001 5921366
-0.84915638 -0.44693661 1.455 8358017
-0.70362598 -0.44601509 1.452 5855830
-0.91587198 -0.43232179 1.452 8162173
-0.85032362 -0.4338105 1.457 8423810
-0.84113783 -0.43261954 1.4530001 8555394
-0.70314145 -0.43886602 1.4510001 5855830
-0.87093419 -0.42694026 1.457 8226683
-0.86347097 -0.42664728 1.4560001 8160638
-0.84740555 -0.42547515 1.452 8423810
-0.87659949 -0.41949347 1.455 8095613
-0.86794537 -0.41862854 1.452 8161406
-0.70265681 -0.40437749 1.45 5986641
-0.70338368 -0.39452821 1.4515001 5724240
0.32426146 -0.39231977 1.4560001 13092811
-0.70411062 -0.38466004 1.4530001 5461070
0.32634383 -0.38386583 1.45 13027018
0.33659965 -0.38386583 1.45 13158347
0.34343687 -0.38386583 1.45 13158345
0.35369265 -0.38386583 1.45 12500415
0.36394849 -0.38386583 1.45 11974328
0.37420434 -0.38386583 1.45 11776949
0.38446015 -0.38386583 1.45 11842742
0.39129737 -0.38386583 1.45 11579570
-0.85689974 -0.37527895 1.4565001 8030078
-0.70386827 -0.37425533 1.4525001 5263692
-0.86109877 -0.36385539 1.452 8029820
-0.85090727 -0.36535892 1.4580001 8161406
-0.84055889 -0.36385539 1.452 8095615
-0.70314145 -0.36360481 1.4510001 5263693
-0.89779854 -0.35799223 1.4560001 7767415
-0.86109877 -0.35700873 1.452 8029820
-0.70013851 -0.35872987 1.4590001 5263693
-0.6991787 -0.35136786 1.457 4803910
-0.85991269 -0.34967977 1.45 8160890
-0.69869888 -0.34426123 1.4560001 5329227
-0.69773912 -0.33693227 1.4540001 5000519
-0.69749916 -0.32653466 1.4535 4868676
-0.69773912 -0.31636405 1.4540001 4671554
-0.69893879 -0.30660501 1.4565001 4671554
-0.70013851 -0.29681301 1.4590001 4539711
-0.70265681 -0.28130764 1.45 4606533
-0.70013851 -0.26929438 1.4590001 4737601
-0.69965863 -0.26223487 1.4580001 4474175
-0.6991787 -0.25518477 1.457 4211775
-0.69797903 -0.24446046 1.4545001 4474174
-0.69725925 -0.23393013 1.4530001 4342589
-0.69725925 -0.22365311 1.4530001 4146493
-0.69725925 -0.21337606 1.4530001 4146752
-0.69725925 -0.20652469 1.4530001 4277568
-0.69701928 -0.1961813 1.4525001 4342590
-0.69477916 -0.18622661 1.4550002 4211004
-0.69316202 -0.1769556 1.4540001 4276540
-0.69088304 -0.1655304 1.4540001 4211003
-0.69040787 -0.15513951 1.4530001 3948089
-0.68637919 -0.15578014 1.4590001 3487279
-0.69135815 -0.14506185 1.455 3685431
-0.69430399 -0.13468513 1.454 3816759
-0.69725925 -0.12430838 1.4530001 3882040
-0.69869882 -0.11426443 1.4560001 4013625
-0.69965863 -0.10411134 1.4580001 4079417
-0.70265681 -0.083028436 1.45 4079671
-0.70314145 -0.076243781 1.4510001 3947831
-0.70362598 -0.06602636 1.452 3882810
-0.70362598 -0.055756386 1.452 4013624
-0.70362598 -0.04548642 1.452 3882296
-0.70362598 -0.035216454 1.452 3948085
-0.70362598 -0.024946488 1.452 3882292
-0.70362598 -0.014676521 1.452 3882038
-0.70386827 -0.0044068941 1.4525001 3750709
-0.70411062 0.0058674491 1.4530001 3488050
-0.70411062 0.016144488 1.4530001 3685171
-0.70362598 0.026403343 1.452 3618866
-0.70362598 0.033249985 1.452 3487280
-0.70314145 0.043489981 1.4510001 3553073
-0.70362598 0.053789917 1.452 3422259
-0.70459521 0.064150482 1.454 3685429
-0.70604891 0.07458581 1.457 3487534
0.94345111 0.074637003 1.4580001 6441784
-0.70653355 0.081511937 1.4580001 3619120
0.94312751 0.084921449 1.4575 6507575
-0.70949405 0.094739109 1.45 3619118
0.94409823 0.095327154 1.4590001 6837310
-0.70949405 0.10499493 1.45 3685170
-0.70653355 0.12963648 1.4580001 3290155
-0.70507973 0.13623054 1.455 3421741
-0.70362598 0.14279629 1.452 3421484
-0.69526613 0.15348794 1.4560001 3158053
-0.68308604 0.16333623 1.452 4472115
-0.66665161 0.17035869 1.4535 6443838
-0.64200616 0.17702952 1.452 7427637
-0.63347417 0.17751721 1.4560001 7296307
-0.62403435 0.17776105 1.4580001 7296562
0.94150984 0.17053449 1.455 7428677
-0.56307232 0.18381286 1.4515001 7689776
-0.55452323 0.18438272 1.4560001 7755568
-0.54878616 0.18476263 1.4590001 7689775
0.008419198 0.18374954 1.4510001 4536867
0.015261127 0.18374954 1.4510001 4536867
-0.52488923 0.19046009 1.45 7820846
-0.51551956 0.19078848 1.4525001 7755053
-0.50611687 0.19111685 1.455 7887152
-0.49667642 0.19144523 1.4575 7886639
-0.48686931 0.19164227 1.4590001 7952434
-0.46623036 0.19164227 1.4590001 7623982
-0.45528826 0.19137956 1.457 7491883
-0.44406435 0.19098552 1.4540001 7558189
-0.43660685 0.19072279 1.452 7426603
-0.42262232 0.19059145 1.4510001 7557676
-0.41606694 0.19072279 1.452 7491883
-0.40663308 0.19111687 1.4550002 7623469
-0.39385781 0.1915766 1.4585001 7557676
-0.38130778 0.1972973 1.45 7623215
-0.37498707 0.19756944 1.452 7360043
-0.3649683 0.19770552 1.4530001 7491629
-0.35517946 0.19797765 1.455 7491629
-0.34512532 0.19811372 1.4560001 7426090
-0.33459708 0.19797765 1.455 7557676
-0.32419565 0.19790962 1.4545001 7426091
-0.31358311 0.19770552 1.4530001 7294252
-0.30340928 0.19777355 1.4535 6768937
-0.29343235 0.19797765 1.455 7230258
-0.28343189 0.19818175 1.4565001 7295024
-0.27266249 0.19784158 1.4540001 7294767
-0.26672044 0.19852193 1.4590001 7228974
-0.2460815 0.19852193 1.4590001 7492142
-0.23576201 0.19852193 1.4590001 7295022
-0.225288 0.19838585 1.4580001 7426351
-0.21424547 0.19770551 1.4530001 7360556
-0.20354022 0.1972973 1.45 7294763
-0.1935463 0.19756944 1.4520001 7360815
-0.18365972 0.19797765 1.455 7426351
-0.17366523 0.19831781 1.4575 7361072
-0.16352569 0.19852193 1.4590001 7295281
0.0061395192 0.19547023 1.4533334 5060895
0.015250608 0.19046009 1.45 4799008
-0.14562213 0.2044161 1.4520001 7229486
-0.13563418 0.20483844 1.455 7097902
-0.12551294 0.20512001 1.457 6966316
-0.11536811 0.20540158 1.4590001 6703144
-0.005282802 0.20497923 1.4560001 5126172
0.0015761813 0.20413454 1.45 5191967
-0.12495416 0.21104449 1.4505 6966316
-0.11489367 0.21140823 1.4530001 6637351
-0.10463285 0.21486557 1.4532499 6637607
-0.094436981 0.21504979 1.4545 6440742
-0.084178254 0.21512489 1.455 6308902
-0.073887073 0.21512491 1.455 6046501
-0.063595891 0.21512489 1.455 5849637
-0.053341337 0.21527275 1.4560001 5783846
-0.046475835 0.21527275 1.4560001 5586723
-0.036177576 0.21527277 1.4560001 5455137
-0.025861543 0.21512491 1.455 5324064
-0.015555486 0.21490312 1.4535002 5126685
-0.0052682888 0.2146837 1.4520001 5192223
0.93827444 0.21780895 1.45 8216381
-0.083888993 0.22464617 1.45 6308902
-0.073633164 0.22464617 1.45 6177829
-0.066795953 0.22464617 1.45 6112036
-0.056540132 0.22464617 1.45 5783844
-0.046284311 0.22464617 1.45 5717796
-0.036028493 0.22464617 1.45 5520674
-0.025772672 0.22464617 1.45 5323551
0.93956858 0.22495602 1.452 8282176
0.93956858 0.23864929 1.452 8478528
0.94021571 0.23196232 1.4530001 8478274
0.94967425 0.26008177 1.457 8216381
-1.0282432 0.32855833 1.4560001 5330240
-0.94879651 0.32378578 1.45 6120528
-1.0192732 0.33473271 1.4530001 5923665
-0.94879651 0.3340416 1.45 5923665
-1.0138153 0.34891501 1.455 6054479
-0.94879651 0.34087878 1.45 6185295
-1.0069546 0.35577583 1.455 5791307
-0.99050242 0.36163968 1.4510001 6251085
-0.98433834 0.36188892 1.452 6054731
-0.97681856 0.36163968 1.4510001 5988940
-1.0117249 0.47828186 1.452 5331008
-1.031554 0.48479441 1.4510001 5198654
-0.95563376 0.49471611 1.45 6184517
-0.95563376 0.50497192 1.45 6118212
-0.95563376 0.51522774 1.45 6118722
-0.95563376 0.52548355 1.45 6053186
-0.95563376 0.53573942 1.45 5921858
-0.69014275 -0.60280496 1.4670001 5264212
-0.68967229 -0.59548134 1.4660001 5330005
-0.69014275 -0.58205283 1.4670001 5657424
-0.68967229 -0.58856869 1.4660001 5460562
-0.6921736 -0.57395929 1.464 5263183
-0.69288397 -0.56763709 1.4655001 5329744
-0.6956346 -0.55669886 1.464 4934730
0.38949791 -0.55513912 1.4690001 12499647
-0.69682252 -0.54382062 1.4665 5394509
0.36487994 -0.54765254 1.4675001 13420494
0.37385425 -0.5456 1.462 12960198
0.38471586 -0.54634637 1.464 12499647
0.40252781 -0.54018009 1.4660001 11974073
0.41550106 -0.54597318 1.4630001 11908280
-0.69753528 -0.53399491 1.4680001 5460815
0.383802 -0.53815347 1.4605 12565440
0.39399597 -0.53796923 1.46 12105659
-0.70061833 -0.52420056 1.46 5723991
-0.69801044 -0.52743191 1.4690001 5395022
-0.70061833 -0.51387393 1.46 5723987
-0.70109826 -0.5038923 1.4610001 5525838
0.78694355 -0.5038923 1.4610001 13881820
-0.70181799 -0.49406421 1.4625001 5460558
-0.70205796 -0.48388657 1.4630001 5985876
-0.7027778 -0.47402313 1.4645001 5395279
-0.91528583 -0.46287441 1.462 7899515
-0.90839201 -0.46287441 1.462 8096894
-0.70301771 -0.46382424 1.465 5329229
-0.86190045 -0.45000833 1.465 8227199
-0.70301771 -0.4569163 1.465 5263436
-0.85207444 -0.4415881 1.46 8161406
-0.70229793 -0.44609833 1.4635 5131594
-0.89827585 -0.43708569 1.4680001 7964540
-0.88382924 -0.43678796 1.4670001 8227199
-0.87631404 -0.43649021 1.4660001 8161408
-0.86564624 -0.43634135 1.4655001 8292224
-0.70157808 -0.43529922 1.462 5131848
0.32715666 -0.43045664 1.4690001 12961225
-0.89267313 -0.42567697 1.4645001 7964281
-0.88396245 -0.4282589 1.4615 8291963
-0.70157808 -0.42495853 1.462 5000517
-0.70157808 -0.41461784 1.462 5131848
0.32648852 -0.41575226 1.4660001 13224138
-0.70229793 -0.40469077 1.4635 5263176
0.32582042 -0.40455368 1.4630001 13027017
-0.70253789 -0.39447537 1.4640001 5132875
-0.86013544 -0.38704264 1.462 8227199
-0.70253789 -0.38412052 1.4640001 5329483
-0.70205796 -0.37351036 1.4630001 5330254
-0.87571627 -0.36020508 1.465 8094843
-0.70109826 -0.36611071 1.4610001 5263693
-0.69801044 -0.36118862 1.4690001 4539970
-0.69706011 -0.35377949 1.4670001 4409154
-0.69610977 -0.3463892 1.465 4605504
-0.69563466 -0.33579794 1.4640001 4605504
-0.69563466 -0.32544309 1.4640001 4342589
-0.69610977 -0.31530112 1.4650002 4408382
-0.69706011 -0.30535787 1.4670001 4539968
-0.70061833 -0.29013205 1.46 4737347
-0.69777286 -0.29528224 1.4685001 4408383
-0.70061833 -0.28324768 1.46 4540740
-0.70061833 -0.27636331 1.46 4540740
-0.69801044 -0.27114013 1.4690001 4408382
-0.69753528 -0.26403347 1.4680001 4539970
-0.69706011 -0.25693622 1.4670001 4408382
-0.69587219 -0.24614117 1.4645001 4342335
-0.69515944 -0.23554011 1.4630001 4276798
-0.69515944 -0.22519235 1.4630001 4277310
-0.69515944 -0.21484457 1.4630001 4276796
-0.69468427 -0.20435703 1.462 4145982
-0.69264638 -0.19441445 1.4650002 3882809
-0.69014275 -0.1877625 1.4670001 4013624
-0.68873143 -0.18047529 1.4640001 3882040
-0.68574077 -0.17369062 1.465 3816245
-0.68457174 -0.16649806 1.4625001 3750452
-0.68206108 -0.1563662 1.4645001 3882550
-0.68527269 -0.14595914 1.4640001 2435364
-0.6924088 -0.13219783 1.4645001 2895913
-0.68873143 -0.13905592 1.4640001 2501157
-0.69515944 -0.12516391 1.4630001 3488050
-0.69706011 -0.11512771 1.467 3553587
-0.70085829 -0.093958586 1.4605 3751223
-0.70157808 -0.083715566 1.462 4079417
-0.70157808 -0.076821774 1.462 3947831
-0.70205796 -0.066526555 1.4630001 3685687
-0.70205796 -0.056178786 1.4630001 4013878
-0.70157808 -0.045799688 1.462 3750964
-0.70157808 -0.035458989 1.462 3882038
-0.70205796 -0.025135476 1.4630001 3488049
-0.70253789 -0.014797815 1.4640001 3553073
-0.7027778 -0.0044433121 1.4645001 3487537
-0.70301771 0.0059159067 1.465 3422257
-0.7027778 0.016271088 1.4645001 3356206
-0.70253789 0.026621554 1.4640001 2895913
-0.70205796 0.033501882 1.4630001 3159085
-0.70157808 0.043819673 1.462 2960936
0.95056909 0.047492888 1.4690001 6312261
-0.70157808 0.054160371 1.462 2895913
0.9479807 0.054271508 1.465 6312513
-0.70301771 0.064635783 1.4650002 2830121
0.94539237 0.064454593 1.461 6572860
-0.70445734 0.07514891 1.4680001 2894886
-0.70622003 0.085317515 1.4645001 3224107
-0.70750272 0.09539248 1.46 3487532
-0.70798731 0.10579144 1.4610001 3487534
0.94636297 0.1059036 1.4625001 7099967
-0.70798731 0.11612506 1.4610001 3487275
0.94862783 0.11652248 1.4660001 7165505
-0.70750272 0.12292995 1.46 3618863
0.94992197 0.12360354 1.4680001 7231552
-0.70397753 0.13735409 1.4670001 3157542
-0.70157808 0.14377974 1.462 3224105
-0.69658494 0.15108578 1.4660001 2763552
-0.68920183 0.15789066 1.465 2895138
0.94862783 0.15799844 1.4660001 6508095
0.95056909 0.15139496 1.4690001 6245435
-0.67813659 0.16462988 1.4635 4274736
0.94539237 0.16434865 1.4610001 6376761
-0.65743637 0.17153074 1.4635 6508861
-0.61477304 0.17806585 1.4605 7493686
-0.60465109 0.17812681 1.4610001 7230771
-0.59492648 0.17830968 1.4625001 7296308
-0.58518296 0.17849258 1.4640001 7362357
-0.57619882 0.1789193 1.4675001 7296307
-0.54339218 0.18526918 1.4630001 7755568
-0.5341351 0.18564908 1.4660001 7689775
-0.52484035 0.186029 1.4690001 7689775
-0.44171867 0.186029 1.4690001 7361324
-0.43271998 0.18514253 1.462 7295531
-0.42425603 0.18596569 1.4685001 7492142
0.95684409 0.18590236 1.4680001 7295545
-0.48031861 0.19177361 1.46 7755055
-0.47343424 0.19177361 1.46 7558189
-0.38420045 0.19190496 1.4610001 7623469
-0.37412271 0.19203632 1.462 7557676
-0.3635332 0.19190496 1.4610001 7360297
-0.35404456 0.19236469 1.4645001 7426090
-0.34380469 0.19243036 1.465 7360045
-0.33689672 0.19243036 1.465 7557424
-0.32620168 0.19223335 1.4635 7491631
-0.31574127 0.19216767 1.4630001 7360045
-0.30549669 0.19223335 1.4635 6703399
-0.29565075 0.19256173 1.4660001 6966832
-0.28932896 0.19295578 1.4690001 7295281
-0.27510032 0.19269308 1.4670001 7295279
-0.26001889 0.19865797 1.46 7492144
-0.25313452 0.19865797 1.46 7426351
-0.21211849 0.19203632 1.462 7294763
-0.20522468 0.19203632 1.462 7295277
-0.19846657 0.19216767 1.4630001 7295279
-0.15346754 0.19886208 1.4615 7295279
-0.1433764 0.19920225 1.4640001 7361072
-0.13656639 0.19933832 1.465 7295281
-0.12633251 0.19954243 1.4665 7032109
-0.1160007 0.19961046 1.4670001 6834730
-0.10569663 0.19974652 1.4680001 6637609
-0.095378436 0.1998826 1.4690001 6440488
-0.084930368 0.19974652 1.4680001 6243366
-0.074496455 0.19961046 1.4670001 6047013
-0.064120397 0.19961046 1.4670001 5718563
-0.0538176 0.1998826 1.4690001 5718563
-0.01224843 0.19974652 1.4680001 5257760
-0.0053136423 0.19580925 1.4645001 5126687
0.0015903126 0.19216767 1.4630001 4732702
0.95619231 0.19615176 1.4670001 6703923
-0.10515545 0.20561275 1.4605 6637351
-0.094923936 0.20582391 1.462 6506535
-0.084583238 0.20582391 1.462 6309160
-0.07424254 0.20582391 1.462 6047015
-0.063858137 0.20568314 1.4610001 5784099
-0.053561151 0.20582391 1.462 5718309
-0.046699274 0.2059647 1.4630001 5652516
-0.036362752 0.20603511 1.4635 5455137
-0.026003737 0.2059647 1.4630001 5455137
-0.015643453 0.20575354 1.4615 5257758
0.95749587 0.2068094 1.4690001 7691840
0.95684409 0.25512323 1.4680001 8347453
-1.0297955 0.30357787 1.4680001 6055762
-0.9635424 0.30923086 1.462 5987659
-0.96683776 0.31720582 1.4670001 6184522
-1.0367177 0.32434413 1.4680001 5332291
-0.96815586 0.32456508 1.4690001 6185295
-1.0200864 0.34417003 1.4640001 5923663
-0.96815586 0.3453455 1.4690001 6119502
-1.0145673 0.35155287 1.4660001 5989456
-1.004535 0.3585878 1.4665 5922892
-0.96632791 0.35379839 1.4610001 6119501
-0.6839323 -0.60301852 1.4760001 4803912
-0.68447286 -0.59436339 1.4746667 4868935
-0.68369943 -0.58542532 1.4755001 5065284
-0.68393117 -0.5751828 1.4760001 4933959
-0.69155407 -0.5624485 1.47 5066061
-0.68439567 -0.5651269 1.477 4606020
0.39055848 -0.56359637 1.473 12434624
-0.69202453 -0.55589491 1.4710001 5197900
-0.68788266 -0.55467772 1.477 4933960
0.35727957 -0.5519442 1.4790001 13749460
0.36376095 -0.55816233 1.4770001 14012119
0.37331745 -0.5568397 1.4735 13420494
0.38439411 -0.55778444 1.4760001 12697026
0.39777401 -0.55702865 1.4740001 12303038
0.40554813 -0.55119783 1.4770001 12039866
-0.69320059 -0.54641646 1.4735 5000520
0.39750415 -0.54970503 1.473 12236475
-0.69461197 -0.53360462 1.4765 4934728
-0.69713682 -0.5224539 1.4745001 5131848
0.78913105 -0.52369404 1.478 13947611
-0.69896072 -0.51427752 1.4710001 5657424
-0.69967353 -0.50438583 1.4725001 5526351
-0.69991106 -0.49413973 1.473 5460815
-0.70062381 -0.48421264 1.4745001 5460815
-0.87651789 -0.47490934 1.478 8423810
-0.70086139 -0.47394538 1.475 5198670
-0.87711096 -0.46825671 1.4790001 8292222
-0.86866629 -0.46398294 1.4765 8292735
-0.70086139 -0.46351272 1.475 5263689
-0.89045638 -0.45400161 1.478 7898747
-0.88348716 -0.45400161 1.478 8096126
-0.87533182 -0.45338726 1.4760001 8095613
-0.70086139 -0.45308006 1.475 5197898
-0.90378302 -0.4467299 1.4770001 8030333
-0.89560407 -0.44612497 1.475 7833468
-0.88744402 -0.44552007 1.473 7965054
-0.87613362 -0.44506639 1.4715002 8160893
-0.86837208 -0.44642743 1.4760001 8227199
-0.70038623 -0.44582254 1.4740001 5131850
-0.70038623 -0.43539697 1.4740001 4934469
0.32737935 -0.43768117 1.47 12763846
-0.70038623 -0.4249714 1.4740001 4803140
0.32804748 -0.42468309 1.473 13158602
-0.70086139 -0.41482705 1.475 4802882
-0.70133656 -0.40466857 1.4760001 4803142
-0.70086139 -0.39396173 1.475 4540481
-0.70038623 -0.3832691 1.4740001 4803140
-0.69943595 -0.37580809 1.4720001 4737090
-0.69713914 -0.366009 1.4745001 4539713
-0.69437671 -0.35594991 1.4760001 4540740
-0.69367105 -0.34516022 1.4745001 4539968
-0.69296539 -0.33438942 1.473 4605504
-0.69320059 -0.32407969 1.4735 4474175
-0.69390625 -0.31397814 1.475 4276798
-0.69508243 -0.30405882 1.4775001 4211774
-0.69578809 -0.29390776 1.4790001 4408384
-0.69848555 -0.28518772 1.47 4277568
-0.69848555 -0.27825621 1.47 4474177
-0.69578809 -0.26601192 1.4790001 4276796
-0.69484717 -0.25520778 1.477 4145211
-0.69390625 -0.24442717 1.475 4276796
-0.69320059 -0.23375776 1.4735 4145211
-0.69249499 -0.2231072 1.4720001 4013624
-0.69249499 -0.21616626 1.4720001 3882038
-0.69202453 -0.2056174 1.4710001 3882553
-0.6888141 -0.20324631 1.4790001 3685431
-0.68788266 -0.19600694 1.4770001 3685429
-0.68431759 -0.18406594 1.4743334 3684659
-0.67953515 -0.17475766 1.4740001 3816499
-0.67570949 -0.16425024 1.4732502 4014137
-0.67559421 -0.1538021 1.473 4079929
-0.68137914 -0.14038569 1.478 2369571
-0.67697012 -0.14715552 1.4760001 2434593
-0.68671834 -0.13657099 1.4745002 1909022
-0.69296539 -0.12601943 1.473 2370339
-0.69484723 -0.11939713 1.4770001 2435362
-0.69848555 -0.10496822 1.47 3750452
-0.69967353 -0.094730601 1.4725001 3422000
-0.70038623 -0.084402703 1.4740001 3421230
-0.70086139 -0.074027322 1.475 3093035
-0.70086139 -0.063594677 1.475 3159085
-0.70086139 -0.056639582 1.475 3158312
-0.70038623 -0.046175614 1.4740001 3026471
-0.70038623 -0.035750039 1.4740001 2960936
-0.70109898 -0.025349058 1.4755001 2895401
-0.70181173 -0.014929217 1.4770001 2829350
-0.70204926 -0.0044827643 1.4775001 3026215
-0.70228684 0.0059684031 1.478 2697764
-0.70204926 0.016415533 1.4775001 2632228
-0.70133656 0.026839763 1.4760001 2566948
-0.70086139 0.033776674 1.475 2566948
-0.70038623 0.044179346 1.4740001 2763558
0.95509869 0.040759388 1.4760001 5457467
-0.70038623 0.054604918 1.4740001 2698534
-0.70181167 0.065165199 1.477 2566948
0.96401387 0.068738066 1.4790001 6507577
0.96271032 0.075609639 1.4770001 6507062
-0.70589697 0.089174964 1.4710001 3092776
0.96303618 0.086086735 1.4775001 6441781
-0.70637691 0.096176535 1.4720001 2895397
-0.70637691 0.10311748 1.4720001 2961190
-0.70685673 0.11360604 1.473 2829349
-0.70637691 0.12394034 1.4720001 3091749
-0.70408958 0.13459054 1.4745001 2763811
0.95153964 0.13421604 1.4705 7034177
-0.70038623 0.14495988 1.4740001 2960933
0.95186323 0.14466484 1.4710001 6575165
-0.69484723 0.15221944 1.4770001 2697759
-0.68648547 0.15886064 1.4740001 2763552
-0.67258471 0.16581103 1.4740001 4208943
-0.65040714 0.17240979 1.4710001 6312765
-0.6447832 0.1727614 1.4740001 6246972
-0.63913095 0.17311302 1.4770001 6115386
-0.5650419 0.17977275 1.4745001 7494200
0.0050636814 0.1792241 1.47 3223072
0.015460961 0.1792241 1.47 3157279
0.95945132 0.17946795 1.4720001 7361338
0.96271032 0.17311302 1.4770001 7363138
-0.5154984 0.18640891 1.4720001 7689775
-0.50611866 0.1867888 1.475 7755314
-0.4963558 0.18704209 1.477 7689265
-0.48624033 0.18716872 1.478 7689521
-0.47562671 0.1871054 1.4775001 7689521
-0.4643881 0.1867888 1.475 7558189
-0.45681277 0.18653554 1.473 7427117
-0.4492563 0.18628226 1.4710001 7427117
-0.43775162 0.1803214 1.4790001 7100216
-0.41457513 0.18628226 1.4710001 7426349
-0.40471792 0.18653554 1.473 7557935
-0.39483714 0.1867888 1.475 7557935
-0.38453361 0.18685213 1.4755001 7492142
-0.37422538 0.18691544 1.4760001 7295277
-0.36328566 0.18666217 1.4740001 7295020
-0.35382476 0.18716872 1.478 7228970
-0.34685549 0.18716872 1.478 7426353
-0.33617407 0.18704209 1.4770001 7360560
-0.32550672 0.18691544 1.4760001 7163695
-0.31517255 0.18697876 1.4765 7163694
-0.21414973 0.18691544 1.4760001 7361074
-0.20747066 0.18716872 1.478 7295281
-0.0053626243 0.1836841 1.478 3945763
0.0015979217 0.18615562 1.47 4668453
-0.28278664 0.19321848 1.4710001 7163695
-0.2665264 0.19400659 1.477 7294765
-0.25608197 0.19400661 1.4770001 7294763
-0.24530256 0.19374388 1.475 7360813
-0.23471069 0.19361255 1.4740001 7295277
-0.22398315 0.19334984 1.4720001 7163691
-0.19261558 0.19321848 1.4710001 7295277
-0.18593179 0.19348118 1.473 7426863
-0.17581001 0.19380957 1.4755001 7295277
-0.16554312 0.19400661 1.4770001 7361072
-0.15525267 0.19420362 1.4785001 7295279
-0.14484541 0.1942693 1.4790001 7163693
-0.13438448 0.1942693 1.4790001 7097900
-0.12392354 0.1942693 1.4790001 6900523
-0.11694957 0.1942693 1.4790001 6637351
-0.10645382 0.19420362 1.4785001 6506023
-0.095962778 0.19413795 1.478 6506281
-0.085423313 0.19394092 1.4765 6046756
-0.074953489 0.19387524 1.4760001 5915940
-0.06449309 0.19380957 1.4755001 5587747
-0.054147318 0.19413795 1.478 5456161
-0.043470558 0.20008668 1.4705 5520930
-0.033104658 0.2002908 1.4720001 5323551
-0.02618148 0.20042686 1.473 5191965
-0.019222757 0.2002908 1.4720001 5323553
0.95945132 0.21417269 1.4720001 8216381
0.96205848 0.22519676 1.4760001 8412732
0.9633621 0.23595341 1.478 8543549
0.96205848 0.24606912 1.4760001 8478783
-1.0311985 0.33171752 1.47 5593930
-0.97013307 0.33910981 1.4720001 5989456
-0.96881491 0.33171752 1.47 6317653
-1.0253139 0.34362876 1.4765 6054480
-1.0159028 0.35443053 1.478 5857870
-0.99789679 0.35993266 1.4720001 5988940
-0.98153532 0.35681719 1.4735 5922122
-0.991629 0.36017716 1.473 6185549
-1.02218 0.48651674 1.4770001 5199422
-1.044486 0.49414951 1.4790001 5067836
-0.67760396 -0.6102013 1.485 5131080
-0.68230116 -0.60814673 1.48 5065034
-0.67432392 -0.60340214 1.4855001 4605506
0.42203319 -0.60360527 1.4860001 12039866
-0.67432392 -0.59639752 1.4855001 4408382
0.42203319 -0.59659827 1.4860001 12039866
-0.67398405 -0.58559424 1.48475 4211261
0.42203319 -0.58608782 1.4860001 11974073
-0.67409813 -0.57519007 1.4850001 4276541
0.42203319 -0.57557738 1.4860001 11908280
-0.67443919 -0.56497014 1.4857501 4343104
0.35897052 -0.56507403 1.4860001 14012119
0.36548492 -0.56780523 1.4840001 14274521
0.37560236 -0.5672313 1.4825001 13617104
0.38777968 -0.5697183 1.4890001 12894405
0.41446769 -0.56080765 1.4840001 12039866
0.42146519 -0.56780523 1.4840001 12039866
-0.6829927 -0.55636883 1.4815001 4671298
-0.67851663 -0.55492967 1.4870001 4408384
-0.68662518 -0.54459661 1.4843334 4539716
-0.67942923 -0.54865491 1.4890001 3355439
-0.69067705 -0.53595257 1.483 4802889
-0.69253993 -0.5233748 1.487 4737092
-0.69649374 -0.51410711 1.4805 4802885
-0.6971994 -0.50414705 1.4820001 4934471
0.79879344 -0.50448722 1.483 13421269
-0.69790506 -0.49416333 1.4835 4802632
-0.69861072 -0.48416078 1.485 4737349
-0.69884598 -0.47381574 1.4855001 4737094
-0.89924723 -0.46190652 1.4810001 8095613
-0.69908118 -0.46346596 1.4860001 4671554
-0.93218923 -0.4573805 1.4890001 7899261
-0.9251681 -0.4573805 1.4890001 8031101
-0.91568047 -0.45615178 1.485 8030587
-0.90745437 -0.45553747 1.483 8162173
-0.69908118 -0.45645899 1.4860001 4474177
-0.69884598 -0.44579965 1.4855001 4803141
-0.69908118 -0.43543807 1.4860001 4933699
0.33794963 -0.43543807 1.4860001 13092811
-0.69908118 -0.42492765 1.4860001 4671554
-0.69955164 -0.4146961 1.4870001 4605504
-0.69931638 -0.40404385 1.4865 4671297
-0.69861072 -0.39313155 1.485 4737090
-0.69814032 -0.38586929 1.4840001 4802885
-0.69672894 -0.3746165 1.4810001 4539712
-0.92780685 -0.36438498 1.4820001 7701622
