# .PCD v0.7 - Point Cloud Data file format
VERSION 0.7
FIELDS x y z rgb
SIZE 4 4 4 4
TYPE F F F U
COUNT 1 1 1 1
WIDTH 1132
HEIGHT 1
VIEWPOINT 0 0 0 1 0 0 0
POINTS 1132
DATA ascii
-0.081351958 -0.15971759 1.6020001 7895404
-0.073890142 -0.15991698 1.6040001 8027244
-0.066409469 -0.16011639 1.6060001 7829093
-0.058873307 -0.16021608 1.6070001 7302490
-0.051295787 -0.16021608 1.6070001 6973784
-0.043745473 -0.16031578 1.608 6974554
-0.03618573 -0.16041549 1.6090001 6645589
-0.028652102 -0.16071458 1.6120001 6974808
-0.021168537 -0.16161187 1.6210001 6382417
-0.013600097 -0.16250916 1.6300001 6645589
-0.0059358957 -0.16310735 1.636 6448210
0.0017838024 -0.16360584 1.641 5790285
0.009533247 -0.16380525 1.6430001 4673348
0.017280517 -0.16380525 1.6430001 3225397
0.025027789 -0.16380525 1.6430001 2503470
0.018292593 -0.091423862 0.91700006 3687995
0.022616541 -0.091423862 0.91700006 4082242
0.026940489 -0.091423862 0.91700006 4082242
0.031264439 -0.091423862 0.91700006 5398100
0.035588387 -0.091423862 0.91700006 6120794
0.039912336 -0.091423862 0.91700006 6449759
0.043753881 -0.090426877 0.90700006 7106919
0.047871806 -0.090127781 0.90400004 7370091
0.052019116 -0.089928381 0.90200007 8160385
0.056209944 -0.089828677 0.90100002 9147280
0.060324244 -0.089629285 0.89900005 9213073
0.064491503 -0.089529589 0.89800006 9542038
0.068572797 -0.089330181 0.89600003 9673624
0.072716475 -0.089230485 0.89500004 9542808
0.076764762 -0.089031093 0.89300007 9477017
0.080884859 -0.088931389 0.89200002 9674396
0.084900141 -0.088731997 0.89000005 9608603
0.088996664 -0.088632293 0.88900006 9871775
0.093083762 -0.088532597 0.88800007 9740189
0.09716142 -0.088432893 0.88700002 9871775
0.10111541 -0.088233501 0.88500005 9674396
0.10528846 -0.088233501 0.88500005 9937568
0.10933784 -0.088133805 0.88400006 10068384
0.11350618 -0.088133805 0.88400006 10068384
0.11780763 -0.088233501 0.88500005 10265250
0.1219807 -0.088233501 0.88500005 10134179
0.1262963 -0.088333197 0.88600004 10265765
0.13062134 -0.088432893 0.88700002 10134179
0.13495579 -0.088532597 0.88800007 10398121
0.1389863 -0.088432893 0.88700002 10398121
0.257112 -0.1500468 1.5050001 10529707
0.26455966 -0.1502462 1.5070001 10595500
0.27184591 -0.15034589 1.508 10661293
0.27951154 -0.15064499 1.511 10661293
0.28663641 -0.15064499 1.511 10858672
0.17264064 -0.088532597 0.88800007 10924465
0.17682785 -0.088532597 0.88800007 10990258
0.18101504 -0.088532597 0.88800007 10924465
0.18520226 -0.088532597 0.88800007 10792879
0.18938945 -0.088532597 0.88800007 10792879
0.1951026 -0.089230485 0.89500004 10595500
0.1993228 -0.089230485 0.89500004 10529705
0.20377044 -0.089330181 0.89600003 10594728
0.20845965 -0.089529589 0.89800006 10463142
0.2122203 -0.089330181 0.89600003 10594728
0.21596208 -0.089130789 0.89400005 10594215
0.219685 -0.088931389 0.89200002 10594213
0.22338907 -0.088731997 0.89000005 10528420
0.22681856 -0.088432893 0.88700002 10527650
0.23048019 -0.088233501 0.88500005 10527650
0.23412296 -0.088034101 0.88300002 10527650
0.23774688 -0.087834701 0.88100004 10527650
0.24135193 -0.087635309 0.87900007 10855845
0.2452174 -0.087535605 0.87800002 10659236
0.24907343 -0.087435909 0.87700003 10725029
0.25320876 -0.087435909 0.87700003 10725029
0.2573441 -0.087435909 0.87700003 10527650
0.26177758 -0.087535605 0.87800002 10790822
0.26622054 -0.087635309 0.87900007 10856615
0.27098045 -0.087834701 0.88100004 10856615
0.27638385 -0.088233501 0.88500005 10922408
0.28150794 -0.088532597 0.88800007 11119787
0.28601685 -0.088632293 0.88900006 11250603
0.29020879 -0.088632293 0.88900006 11053224
0.29373839 -0.088432893 0.88700002 11250603
0.29758501 -0.088333197 0.88600004 11250603
0.30142218 -0.088233501 0.88500005 11316139
0.30490464 -0.088034101 0.88300002 11184553
0.30871823 -0.087934397 0.88200003 11119017
0.31252241 -0.087834701 0.88100004 11250603
0.31631717 -0.087735005 0.88000005 11119017
0.32010248 -0.087635309 0.87900007 11119017
0.32387835 -0.087535605 0.87800002 11250603
0.32764482 -0.087435909 0.87700003 11119017
0.33140185 -0.087336212 0.87600005 11250603
0.33553246 -0.087336212 0.87600005 11316396
0.33927536 -0.087236509 0.87500006 11381932
0.34340122 -0.087236509 0.87500006 11316139
0.34752715 -0.087236509 0.87500006 11447725
0.35125116 -0.087136805 0.87400001 11447725
0.35577896 -0.087236509 0.87500006 11512748
0.35990486 -0.087236509 0.87500006 11578541
0.36403078 -0.087236509 0.87500006 11578541
0.36815667 -0.087236509 0.87500006 11710127
0.37228256 -0.087236509 0.87500006 11644334
0.37683865 -0.087336212 0.87600005 11578541
0.38096929 -0.087336212 0.87600005 11512748
0.3855395 -0.087435909 0.87700003 11644334
0.39011917 -0.087535605 0.87800002 11578541
0.39470828 -0.087635309 0.87900007 11578541
0.3993068 -0.087735005 0.88000005 11710127
0.40391475 -0.087834701 0.88100004 11710129
0.40853211 -0.087934397 0.88200003 11710129
0.41315892 -0.088034101 0.88300002 11644334
0.41732255 -0.088034101 0.88300002 11710127
0.42196354 -0.088133805 0.88400006 11644334
0.42661393 -0.088233501 0.88500005 11578541
0.430787 -0.088233501 0.88500005 11578541
0.43545154 -0.088333197 0.88600004 11578541
0.44012547 -0.088432893 0.88700002 11512748
0.44430795 -0.088432893 0.88700002 11644334
0.44849044 -0.088432893 0.88700002 11644334
0.45267296 -0.088432893 0.88700002 11578541
0.45685545 -0.088432893 0.88700002 11644334
0.46103793 -0.088432893 0.88700002 11578541
0.46522042 -0.088432893 0.88700002 11709614
0.46887371 -0.088333197 0.88600004 11643821
0.4735854 -0.088432893 0.88700002 11512748
0.47776788 -0.088432893 0.88700002 11644336
0.4819504 -0.088432893 0.88700002 11710127
0.48613283 -0.088432893 0.88700002 11578541
0.49031532 -0.088432893 0.88700002 11644334
0.49505535 -0.088532597 0.88800007 11512750
0.49924254 -0.088532597 0.88800007 11644336
0.50342977 -0.088532597 0.88800007 11578543
0.50761694 -0.088532597 0.88800007 11644336
0.51238054 -0.088632293 0.88900006 11446957
0.5171535 -0.088731997 0.89000005 11184555
0.52135015 -0.088731997 0.89000005 11184555
0.52613729 -0.088831693 0.89100003 11183785
0.53093386 -0.088931389 0.89200002 11249065
0.53513992 -0.088931389 0.89200002 10655131
0.53511345 -0.088233501 0.88500005 6970204
0.83784699 -0.13499227 1.3540001 4472897
0.84859604 -0.13569015 1.3610001 4538690
0.85941112 -0.13638805 1.368 5393219
0.89497691 -0.14097419 1.414 7166539
0.945005 -0.14775373 1.4820001 7297863
0.9603439 -0.14904982 1.4950001 7560515
0.99780631 -0.15373565 1.5420001 7230785
1.0363638 -0.15852119 1.59 7561035
1.0596175 -0.16091397 1.6140001 7824205
-0.61374509 -0.078361429 0.82500005 7044204
-0.609855 -0.078361429 0.82500005 6846825
-0.60596484 -0.078361429 0.82500005 6781800
-0.60207474 -0.078361429 0.82500005 6977895
-0.59818459 -0.078361429 0.82500005 6978409
-0.59429449 -0.078361429 0.82500005 6978409
-0.59040433 -0.078361429 0.82500005 7109995
-0.58651417 -0.078361429 0.82500005 7108968
-0.58262402 -0.078361429 0.82500005 7108968
-0.57873392 -0.078361429 0.82500005 7108968
-0.57484376 -0.078361429 0.82500005 7043175
-0.57095361 -0.078361429 0.82500005 6911589
-0.56706345 -0.078361429 0.82500005 6911589
-0.56317335 -0.078361429 0.82500005 7371372
-0.5592832 -0.078361429 0.82500005 6910823
-0.55539304 -0.078361429 0.82500005 7042409
-0.55150288 -0.078361429 0.82500005 7173995
-0.54761279 -0.078361429 0.82500005 7042409
-0.54372269 -0.078361429 0.82500005 7043179
-0.53983253 -0.078361429 0.82500005 7108972
-0.53594238 -0.078361429 0.82500005 6911593
-0.53205222 -0.078361429 0.82500005 7043177
-0.52816212 -0.078361429 0.82500005 7108970
-0.52427197 -0.078361429 0.82500005 6845800
-0.52038181 -0.078361429 0.82500005 6911593
-0.51649165 -0.078361429 0.82500005 7174765
-0.51260155 -0.078361429 0.82500005 7305581
-0.5087114 -0.078361429 0.82500005 7239788
-0.50482124 -0.078361429 0.82500005 7305581
-0.50093108 -0.078361429 0.82500005 7240558
-0.49704096 -0.078361429 0.82500005 7372144
-0.49315083 -0.078361429 0.82500005 7372144
-0.82931358 -0.13497163 1.4210001 7438450
-0.81624526 -0.13392681 1.4100001 7635575
-0.80615151 -0.1333569 1.404 7569784
-0.79725337 -0.13297698 1.4000001 7701370
-0.78613389 -0.13221711 1.3920001 7701370
-0.77677 -0.13174219 1.3870001 7832443
-0.76745325 -0.13126726 1.3820001 8161921
-0.7581836 -0.13079235 1.3770001 7634294
-0.74950701 -0.13041241 1.373 8028539
-0.74086821 -0.13003248 1.3690001 8094845
-0.73280352 -0.12974752 1.3660001 8160638
-0.72583067 -0.12965254 1.365 7963259
-0.71939421 -0.12965254 1.365 8160125
-0.71400249 -0.12984252 1.3670001 8160125
-0.70910954 -0.13012747 1.3700001 7896953
-0.7057268 -0.13069737 1.376 7765880
-0.70330387 -0.13145724 1.3840001 6185817
-0.70231587 -0.13250206 1.3950001 5855055
-0.7017228 -0.13364185 1.4070001 5395531
-0.70101655 -0.13478166 1.419 4671554
-0.70019722 -0.13592146 1.4310001 5067082
-0.69781089 -0.13677631 1.4400001 3948601
-0.69533974 -0.13763118 1.4490001 3948603
-0.69278365 -0.13848601 1.4580001 3685431
-0.68967229 -0.13924588 1.4660001 2566178
-0.68648547 -0.14000575 1.4740001 1974811
-0.68276221 -0.14067064 1.4810001 2369571
-0.6789729 -0.14133552 1.488 2237985
-0.67511761 -0.14200042 1.4950001 1645848
-0.67119628 -0.1426653 1.5020001 1645846
-0.66720891 -0.14333019 1.5090001 1777432
-0.66359299 -0.14409006 1.5170001 1580053
-0.65990162 -0.14484993 1.5250001 1580053
-0.65656286 -0.14570476 1.534 1580307
-0.65313917 -0.14655963 1.5430001 1777686
-0.64963061 -0.14741448 1.552 1777432
-0.64562333 -0.14817435 1.5600001 1909018
-0.64113146 -0.14883922 1.567 1645846
-0.63616914 -0.14940913 1.5730001 1908248
-0.63035077 -0.14978905 1.577 1776916
-0.62409973 -0.15007401 1.58 2039831
-0.61703986 -0.150169 1.5810001 2105624
-0.60958493 -0.150169 1.5810001 2039834
-0.60213 -0.150169 1.5810001 2105627
-0.5942989 -0.15007401 1.58 1909788
-0.58647728 -0.14997904 1.5790001 1778202
-0.57903183 -0.14997904 1.5790001 1712409
-0.57122427 -0.14988405 1.5780001 1909788
-0.56378359 -0.14988405 1.5780001 2040604
-0.55634278 -0.14988405 1.5780001 2368799
-0.54890198 -0.14988405 1.5780001 2106397
-0.54146123 -0.14988405 1.5780001 2435362
-0.53402042 -0.14988405 1.5780001 2501155
-0.52624595 -0.14978905 1.577 2237983
-0.5184809 -0.14969409 1.5760001 3356464
-0.51040101 -0.14950411 1.5740001 3094062
-0.50202048 -0.14921917 1.5710001 3094062
-0.4936682 -0.14893422 1.5680001 3357234
-0.48472396 -0.1484593 1.5630001 3620406
-0.47613224 -0.14807935 1.559 3291441
-0.46757829 -0.14769943 1.5550001 3357236
-0.45935804 -0.14741448 1.552 3357234
-0.45145732 -0.1472245 1.5500001 3488820
-0.44414863 -0.1472245 1.5500001 3357234
-0.43712172 -0.1473195 1.5510001 3357234
-0.43008533 -0.14741448 1.552 3554615
-0.42358437 -0.14769943 1.5550001 3620406
-0.41678742 -0.14788939 1.557 3554867
-0.41023457 -0.14817435 1.5600001 3620660
-0.40365344 -0.1484593 1.5630001 3620660
-0.39679044 -0.14864926 1.5650001 3620660
-0.39015749 -0.14893422 1.5680001 3620660
-0.38325205 -0.14912418 1.5700001 3620660
-0.37632781 -0.14931414 1.572 3620660
-0.36915001 -0.14940913 1.5730001 3620406
-0.3619628 -0.14950411 1.5740001 3751992
-0.35454085 -0.14950411 1.5740001 3686199
-0.34756002 -0.14969409 1.5760001 3620406
-0.34034449 -0.14978905 1.577 3686199
-0.33311951 -0.14988405 1.5780001 3686199
-0.32609153 -0.15007401 1.58 3948601
-0.31884301 -0.150169 1.5810001 3817015
-0.31158501 -0.15026398 1.582 3817015
-0.30431762 -0.15035896 1.5830001 3882808
-0.29704082 -0.15045395 1.5840001 3817015
-0.28975457 -0.15054892 1.585 3817785
-0.28228077 -0.15054892 1.585 3817785
-0.27480698 -0.15054892 1.585 3751992
-0.26733321 -0.15054892 1.585 3686199
-0.2596955 -0.15045395 1.5840001 3686199
-0.25174871 -0.150169 1.5810001 3686199
-0.24367571 -0.14978905 1.577 3686201
-0.23564045 -0.14940913 1.5730001 3817787
-0.22764291 -0.1490292 1.5690001 3751992
-0.2195427 -0.14855428 1.5640001 3817785
-0.21176098 -0.14826933 1.5610001 3817785
-0.20413847 -0.14807935 1.559 4080187
-0.19666106 -0.14798437 1.5580001 4145980
-0.1893146 -0.14798437 1.5580001 4015164
-0.1820849 -0.14807935 1.559 4146750
-0.17484581 -0.14817435 1.5600001 4343359
-0.16759728 -0.14826933 1.5610001 4409152
-0.16044198 -0.1484593 1.5630001 4343359
-0.15326779 -0.14864926 1.5650001 4343359
-0.14616798 -0.14893422 1.5680001 4409152
-0.13912836 -0.14931414 1.572 4212543
-0.13213482 -0.14978905 1.577 4147263
-0.12509413 -0.15026398 1.582 4409922
-0.11785758 -0.15054892 1.585 4409922
-0.11066236 -0.15092887 1.5890001 4409922
-0.10329958 -0.15111883 1.5910001 4540738
-0.095978141 -0.15140378 1.5940001 4803140
-0.088572919 -0.15159374 1.5960001 4802883
-0.081199609 -0.1518787 1.5990001 4803140
-0.073751949 -0.15206866 1.6010001 4540738
-0.066244073 -0.15216365 1.6020001 4606531
-0.058690127 -0.15216365 1.6020001 4409152
-0.051136184 -0.15216365 1.6020001 4408382
-0.04355504 -0.15206866 1.6010001 4474429
-0.036005814 -0.15206866 1.6010001 4277050
-0.028456585 -0.15206866 1.6010001 4079671
-0.020881241 -0.1518787 1.5990001 3751222
-0.013466599 -0.15330346 1.6140001 3619636
-0.0058778431 -0.15387335 1.6200001 3356464
0.001760975 -0.15387335 1.6200001 3290671
0.009399794 -0.15387335 1.6200001 3027499
0.017038612 -0.15387335 1.6200001 2699304
0.024677429 -0.15387335 1.6200001 2765097
0.018292593 -0.087099917 0.91700006 2634026
0.022616541 -0.087099917 0.91700006 2503210
0.026940489 -0.087099917 0.91700006 2897968
0.031264439 -0.087099917 0.91700006 4279368
0.035588387 -0.087099917 0.91700006 4740172
0.039912336 -0.087099917 0.91700006 5265233
0.043850359 -0.086340047 0.90900004 6514530
0.047924761 -0.085960113 0.90500003 6975598
0.052076783 -0.085770153 0.90300006 8357764
0.056209944 -0.085580178 0.90100002 8884108
0.060324244 -0.085390218 0.89900005 9278866
0.064491503 -0.08529523 0.89800006 9542038
0.068572797 -0.085105263 0.89600003 9477015
0.072635233 -0.084915295 0.89400005 9542810
0.076678798 -0.084725328 0.89200002 9608603
0.080794178 -0.084630348 0.89100003 9608603
0.084900141 -0.08453536 0.89000005 9674396
0.088896558 -0.0843454 0.88800007 9740189
0.092978939 -0.084250413 0.88700002 9937568
0.097051881 -0.084155425 0.88600004 9937568
0.10111541 -0.084060445 0.88500005 9937568
0.10528846 -0.084060445 0.88500005 9937568
0.10933784 -0.083965465 0.88400006 9871775
0.11350618 -0.083965465 0.88400006 10003361
0.11780763 -0.084060445 0.88500005 10069154
0.1219807 -0.084060445 0.88500005 10069154
0.1262963 -0.084155425 0.88600004 10069154
0.13062134 -0.084250413 0.88700002 10200740
0.13495579 -0.0843454 0.88800007 10332326
0.25051379 -0.14323519 1.508 10595498
0.25779533 -0.14333019 1.5090001 10661293
0.26526186 -0.14352015 1.511 10529707
0.272567 -0.14361513 1.5120001 10792879
0.28006652 -0.1438051 1.5140001 10661293
0.2868261 -0.14361513 1.5120001 10924465
0.29337242 -0.14333019 1.5090001 10859185
0.17682785 -0.0843454 0.88800007 10924978
0.18101504 -0.0843454 0.88800007 10859185
0.18520226 -0.0843454 0.88800007 10924465
0.18938945 -0.0843454 0.88800007 10858672
0.19575658 -0.08529523 0.89800006 10661293
0.1995455 -0.085105263 0.89600003 10463914
0.20354302 -0.085010283 0.89500004 10463142
0.2082275 -0.085200243 0.89700001 10594728
0.2122203 -0.085105263 0.89600003 10396836
0.21596208 -0.084915295 0.89400005 10265250
0.219685 -0.084725328 0.89200002 10396836
0.22338907 -0.08453536 0.89000005 10396836
0.22681856 -0.084250413 0.88700002 10659238
0.23048019 -0.084060445 0.88500005 10659238
0.23412296 -0.083870478 0.88300002 10659236
0.23774688 -0.083680511 0.88100004 10790822
0.24135193 -0.083490543 0.87900007 10790052
0.24493812 -0.083300576 0.87700003 10790052
0.24878943 -0.083205596 0.87600005 10855845
0.25292006 -0.083205596 0.87600005 10790822
0.25675723 -0.083110608 0.87500006 10790822
0.26118129 -0.083205596 0.87600005 10790822
0.26561478 -0.083300576 0.87700003 10922408
0.27005771 -0.083395556 0.87800002 10922408
0.27575925 -0.083870478 0.88300002 10922408
0.28055689 -0.084060445 0.88500005 11185580
0.28537339 -0.084250413 0.88700002 11119017
0.28988236 -0.0843454 0.88800007 11119017
0.29340723 -0.084155425 0.88600004 11119017
0.29691327 -0.083965465 0.88400006 11119017
0.3010816 -0.083965465 0.88400006 11119017
0.30455932 -0.083775491 0.88200003 11250603
0.30801821 -0.083585531 0.88000005 11316396
0.31181294 -0.083490543 0.87900007 11250603
0.31559825 -0.083395556 0.87800002 11250603
0.31937414 -0.083300576 0.87700003 11053224
0.32350948 -0.083300576 0.87700003 11316396
0.32727122 -0.083205596 0.87600005 11119019
0.33102354 -0.083110608 0.87500006 11250603
0.33514944 -0.083110608 0.87500006 11316396
0.3388876 -0.083015621 0.87400001 11250603
0.34300876 -0.083015621 0.87400001 11381932
0.34712994 -0.083015621 0.87400001 11447725
0.35125116 -0.083015621 0.87400001 11316139
0.35496575 -0.082920641 0.87300003 11447725
0.35908222 -0.082920641 0.87300003 11512748
0.36361471 -0.083015621 0.87400001 11710127
0.36773592 -0.083015621 0.87400001 11644334
0.37185708 -0.083015621 0.87400001 11644334
0.37597826 -0.083015621 0.87400001 11578541
0.38053438 -0.083110608 0.87500006 11578541
0.3846603 -0.083110608 0.87500006 11710127
0.38923052 -0.083205596 0.87600005 11578541
0.39425921 -0.083395556 0.87800002 11644334
0.39885306 -0.083490543 0.87900007 11644334
0.4034563 -0.083585531 0.88000005 11447725
0.40806893 -0.083680511 0.88100004 11447725
0.41269103 -0.083775491 0.88200003 11513518
0.41732255 -0.083870478 0.88300002 11644334
0.42196354 -0.083965465 0.88400006 11644334
0.4261319 -0.083965465 0.88400006 11578541
0.430787 -0.084060445 0.88500005 11578541
0.43545154 -0.084155425 0.88600004 11644334
0.43962929 -0.084155425 0.88600004 11578541
0.44430795 -0.084250413 0.88700002 11644334
0.44849044 -0.084250413 0.88700002 11578541
0.45267296 -0.084250413 0.88700002 11644334
0.45685545 -0.084250413 0.88700002 11710127
0.46051815 -0.084155425 0.88600004 11578541
0.46469593 -0.084155425 0.88600004 11578541
0.46887371 -0.084155425 0.88600004 11578541
0.47305149 -0.084155425 0.88600004 11710380
0.47776788 -0.084250413 0.88700002 11578541
0.4819504 -0.084250413 0.88700002 11644334
0.48613283 -0.084250413 0.88700002 11578541
0.49086812 -0.0843454 0.88800007 11644334
0.49505535 -0.0843454 0.88800007 11644336
0.49924254 -0.0843454 0.88800007 11775922
0.50399667 -0.08444038 0.88900006 11644336
0.50818861 -0.08444038 0.88900006 11578543
0.51238054 -0.08444038 0.88900006 11315371
0.5171535 -0.08453536 0.89000005 11446957
0.52193594 -0.084630348 0.89100003 11446957
0.52613729 -0.084630348 0.89100003 11117992
0.53093386 -0.084725328 0.89200002 11052199
0.53513992 -0.084725328 0.89200002 10458266
0.53511345 -0.084060445 0.88500005 7035997
0.83351547 -0.12794285 1.3470001 4407106
0.84360796 -0.12851274 1.353 4078392
0.85501355 -0.12927261 1.3610001 6908513
0.8740899 -0.13117228 1.381 7826783
0.89654315 -0.13354687 1.406 8221025
0.93593377 -0.13839103 1.457 8089437
0.96868747 -0.14219038 1.4970001 8221275
1.0037738 -0.14627467 1.5400001 8287068
1.0267918 -0.14855428 1.5640001 8221275
-0.61374509 -0.074471295 0.82500005 6978147
-0.609855 -0.074471295 0.82500005 6912870
-0.60596484 -0.074471295 0.82500005 6847077
-0.60207474 -0.074471295 0.82500005 6978149
-0.59818459 -0.074471295 0.82500005 6978149
-0.59429449 -0.074471295 0.82500005 6977895
-0.59040433 -0.074471295 0.82500005 6846309
-0.58651417 -0.074471295 0.82500005 7108968
-0.58262402 -0.074471295 0.82500005 7174761
-0.57873392 -0.074471295 0.82500005 6845798
-0.57484376 -0.074471295 0.82500005 6911591
-0.57095361 -0.074471295 0.82500005 6911591
-0.56706345 -0.074471295 0.82500005 7240554
-0.56317335 -0.074471295 0.82500005 7042405
-0.5592832 -0.074471295 0.82500005 6845798
-0.55539304 -0.074471295 0.82500005 6845798
-0.55150288 -0.074471295 0.82500005 7108970
-0.54761279 -0.074471295 0.82500005 6911593
-0.54372269 -0.074471295 0.82500005 6845798
-0.53983253 -0.074471295 0.82500005 6845800
-0.53594238 -0.074471295 0.82500005 6714214
-0.53205222 -0.074471295 0.82500005 7108972
-0.52816212 -0.074471295 0.82500005 6911593
-0.52427197 -0.074471295 0.82500005 7042409
-0.52038181 -0.074471295 0.82500005 6976616
-0.51649165 -0.074471295 0.82500005 7173995
-0.51260155 -0.074471295 0.82500005 7043179
-0.5087114 -0.074471295 0.82500005 7240558
-0.50482124 -0.074471295 0.82500005 7043692
-0.50093108 -0.074471295 0.82500005 7109485
-0.49704096 -0.074471295 0.82500005 7240556
-0.49315083 -0.074471295 0.82500005 7306349
-0.8269791 -0.12791009 1.4170001 7372144
-0.80061495 -0.12484097 1.383 7635316
-0.80442894 -0.1264658 1.401 7700855
-0.79440606 -0.1259242 1.3950001 7700855
-0.78331012 -0.12520204 1.3870001 7635062
-0.77452981 -0.12484097 1.383 7964027
-0.76578724 -0.1244799 1.3790001 8425091
-0.75653177 -0.12402856 1.3740001 7305329
-0.74786943 -0.12366749 1.3700001 7962746
-0.73978591 -0.12339668 1.3670001 7896953
-0.73173064 -0.12312587 1.3640001 8159872
-0.72476715 -0.1230356 1.363 7962746
-0.71834022 -0.1230356 1.363 7896953
-0.7129578 -0.12321614 1.365 8028539
-0.70859194 -0.12357721 1.3690001 7831673
-0.70521396 -0.12411883 1.3750001 7700087
-0.70279568 -0.12484097 1.383 6054231
-0.70181239 -0.12583391 1.3940001 5855055
-0.7017228 -0.12700741 1.4070001 5329481
-0.70101655 -0.12809062 1.419 4474429
-0.70019722 -0.12917385 1.4310001 4935750
-0.69878006 -0.1301668 1.442 3948601
-0.69629949 -0.13097921 1.4510001 3948601
-0.69420916 -0.13188189 1.4610001 3422259
-0.69202453 -0.13278458 1.4710001 2566948
-0.68927979 -0.13359699 1.48 1909018
-0.6864503 -0.1344094 1.4890001 1843227
-0.6830796 -0.13513155 1.4970001 1645846
-0.67963344 -0.13585369 1.5050001 1317653
-0.67566496 -0.13648558 1.5120001 1317651
-0.67163044 -0.13711745 1.5190001 1317651
-0.66796738 -0.1378396 1.5270001 1383444
-0.66422886 -0.13856174 1.5350001 1251858
-0.6608429 -0.13937415 1.544 1251858
-0.65779537 -0.14027683 1.554 1317651
-0.65465355 -0.14117953 1.5640001 1251858
-0.65100354 -0.14199193 1.5730001 1317651
-0.64685953 -0.14271408 1.5810001 1186065
-0.64223558 -0.14334595 1.5880001 1383444
-0.63674623 -0.14379729 1.5930001 1448467
-0.63081473 -0.14415838 1.5970001 1514260
-0.62406498 -0.14433891 1.5990001 1382674
-0.6169107 -0.14442918 1.6 1382674
-0.60936618 -0.14442918 1.6 1382674
-0.60144556 -0.14433891 1.5990001 1251858
-0.59353429 -0.14424863 1.598 1383446
-0.58563256 -0.14415838 1.5970001 1383446
-0.57810217 -0.14415838 1.5970001 1448469
-0.57021457 -0.14406811 1.5960001 1580053
-0.56268889 -0.14406811 1.5960001 1448467
-0.55481535 -0.14397784 1.595 1580053
-0.54729444 -0.14397784 1.595 1580053
-0.53943509 -0.14388756 1.5940001 1580053
-0.53158516 -0.14379729 1.5930001 1514260
-0.5237447 -0.14370704 1.5920001 1580053
-0.51591361 -0.14361677 1.5910001 1515030
-0.50745291 -0.14334595 1.5880001 1449237
-0.49933529 -0.14316542 1.5860001 1646616
-0.49061629 -0.14280434 1.582 1646616
-0.48224044 -0.14253356 1.5790001 1646616
-0.47389287 -0.14226274 1.5760001 1515032
-0.46557358 -0.14199193 1.5730001 1515032
-0.45757386 -0.1418114 1.5710001 1514260
-0.44987956 -0.14172113 1.5700001 1777432
-0.4421947 -0.14163087 1.5690001 1580053
-0.43479636 -0.14163087 1.5690001 1645846
-0.42767039 -0.14172113 1.5700001 1645846
-0.42080268 -0.14190166 1.572 1843225
-0.41365319 -0.14199193 1.5730001 1909018
-0.4067525 -0.14217247 1.575 1909020
-0.39983293 -0.142353 1.577 1974811
-0.39289457 -0.14253356 1.5790001 1843995
-0.38593727 -0.14271408 1.5810001 1449237
-0.37872174 -0.14280434 1.582 1778202
-0.3712621 -0.14280434 1.582 2172962
-0.36403245 -0.14289461 1.5830001 2304548
-0.3565681 -0.14289461 1.5830001 2238755
-0.34932429 -0.14298488 1.5840001 2567718
-0.34207103 -0.14307515 1.585 2370339
-0.33480835 -0.14316542 1.5860001 2896683
-0.32753626 -0.1432557 1.5870001 3357234
-0.32025471 -0.14334595 1.5880001 3357234
-0.31296372 -0.14343622 1.5890001 3488820
-0.30547109 -0.14343622 1.5890001 3357234
-0.29816598 -0.14352649 1.59 3554613
-0.29066861 -0.14352649 1.59 3554613
-0.28334934 -0.14361677 1.5910001 3620406
-0.27584726 -0.14361677 1.5910001 3620406
-0.26817653 -0.14352649 1.59 3620406
-0.26051524 -0.14343622 1.5890001 3620406
-0.25254488 -0.14316542 1.5860001 3686199
-0.24444829 -0.14280434 1.582 3751992
-0.23638947 -0.14244327 1.5780001 3686199
-0.22836834 -0.14208221 1.5740001 3751992
-0.22038493 -0.14172113 1.5700001 3751992
-0.21257491 -0.14145032 1.567 3751992
-0.20492412 -0.14126979 1.5650001 3751992
-0.19741842 -0.14117953 1.5640001 3949371
-0.19004367 -0.14117953 1.5640001 3949371
-0.18278569 -0.14126979 1.5650001 3949371
-0.1755183 -0.14136006 1.5660001 3949371
-0.16824147 -0.14145032 1.567 4015164
-0.16105787 -0.14163087 1.5690001 4080957
-0.1538554 -0.1418114 1.5710001 4080957
-0.14672729 -0.14208221 1.5740001 4080957
-0.13965939 -0.14244327 1.5780001 4080957
-0.13255377 -0.14280434 1.582 4277566
-0.12541042 -0.14316542 1.5860001 4277566
-0.11815502 -0.14343622 1.5890001 4277566
-0.11087129 -0.14370704 1.5920001 4211773
-0.10349436 -0.14388756 1.5940001 4277566
-0.09615878 -0.14415838 1.5970001 4277566
-0.08873941 -0.14433891 1.5990001 4343359
-0.081250392 -0.14442918 1.6 4277566
-0.073798016 -0.14460972 1.6020001 4211773
-0.066244073 -0.14460972 1.6020001 4343359
-0.058653492 -0.14451945 1.6010001 4277566
-0.051040426 -0.14433891 1.5990001 4211773
-0.04344622 -0.14415838 1.5970001 4080187
-0.035870872 -0.14397784 1.595 3817015
-0.028314391 -0.14379729 1.5930001 3488050
-0.020750653 -0.14343622 1.5890001 3290671
-0.013207947 -0.14289461 1.5830001 3289901
-0.0057435958 -0.14289461 1.5830001 3027499
0.0017207551 -0.14289461 1.5830001 2830120
0.0091851065 -0.14289461 1.5830001 2764327
0.016649457 -0.14289461 1.5830001 2567718
0.024113808 -0.14289461 1.5830001 2633511
0.018292593 -0.082775973 0.91700006 2633511
0.022616541 -0.082775973 0.91700006 2568233
0.026940489 -0.082775973 0.91700006 2765612
0.031264439 -0.082775973 0.91700006 4344644
0.035588387 -0.082775973 0.91700006 4739149
0.039868809 -0.082685709 0.91600007 5331539
0.043898601 -0.082144096 0.91000003 6120802
0.047977716 -0.081783019 0.90600002 6712939
0.052134454 -0.081602484 0.90400004 8226948
0.056209944 -0.081331678 0.90100002 8621706
0.060324244 -0.081151143 0.89900005 9278866
0.064419687 -0.080970608 0.89700001 9607831
0.068496265 -0.080790073 0.89500004 9607831
0.072553985 -0.080609538 0.89300007 9739417
0.076592833 -0.080428995 0.89100003 9542810
0.080703504 -0.080338731 0.89000005 9674396
0.084804751 -0.08024846 0.88900006 9674396
0.088896558 -0.080158196 0.88800007 9740189
0.092978939 -0.080067925 0.88700002 9871775
0.097051881 -0.079977654 0.88600004 9871775
0.10111541 -0.07988739 0.88500005 9871775
0.10528846 -0.07988739 0.88500005 9937568
0.10933784 -0.079797126 0.88400006 9937568
0.11350618 -0.079797126 0.88400006 9937568
0.11780763 -0.07988739 0.88500005 10003361
0.1219807 -0.07988739 0.88500005 10069154
0.1262963 -0.079977654 0.88600004 10134947
0.13047408 -0.079977654 0.88600004 10200740
0.13480382 -0.080067925 0.88700002 10398119
0.25034767 -0.13603424 1.5070001 10529707
0.25779533 -0.13621476 1.5090001 10595500
0.26508632 -0.13630503 1.5100001 10661293
0.272567 -0.13648558 1.5120001 10595500
0.27969655 -0.13648558 1.5120001 10661293
0.286257 -0.13621476 1.5090001 10924465
0.29376125 -0.13639531 1.511 10990258
0.17682785 -0.080158196 0.88800007 11056564
0.18101504 -0.080158196 0.88800007 10924978
0.18520226 -0.080158196 0.88800007 10990771
0.18938945 -0.080158196 0.88800007 10793392
0.19357666 -0.080158196 0.88800007 10660523
0.19999093 -0.081060879 0.89800006 10594730
0.20354302 -0.080790073 0.89500004 10594730
0.20776324 -0.080790073 0.89500004 10463144
0.21198344 -0.080790073 0.89500004 10463144
0.21620364 -0.080790073 0.89500004 10331558
0.219685 -0.080519266 0.89200002 10528422
0.22338907 -0.080338731 0.89000005 10528422
0.22681856 -0.080067925 0.88700002 10527652
0.23048019 -0.07988739 0.88500005 10659238
0.23412296 -0.079706848 0.88300002 10790824
0.23747702 -0.079436049 0.88000005 10659238
0.24135193 -0.079345785 0.87900007 10659238
0.24493812 -0.079165243 0.87700003 10725031
0.24878943 -0.079074979 0.87600005 10659238
0.25263134 -0.078984708 0.87500006 10659238
0.2564638 -0.078894436 0.87400001 10725031
0.26058498 -0.078894436 0.87400001 10790054
0.26470616 -0.078894436 0.87400001 10855845
0.26913497 -0.078984708 0.87500006 10856615
0.27201167 -0.078623638 0.87100005 10988201
0.2761187 -0.078623638 0.87100005 11119787
0.28022575 -0.078623638 0.87100005 10922408
0.28433278 -0.078623638 0.87100005 10988201
0.29208258 -0.079616584 0.88200003 10922408
0.29590562 -0.079526313 0.88100004 11250603
0.30005983 -0.079526313 0.88100004 11119017
0.30386874 -0.079436049 0.88000005 11250603
0.30766821 -0.079345785 0.87900007 11250603
0.3114582 -0.079255506 0.87800002 11119017
0.3152388 -0.079165243 0.87700003 11119017
0.31900996 -0.079074979 0.87600005 11250603
0.32314059 -0.079074979 0.87600005 11381932
0.32689762 -0.078984708 0.87500006 11447725
0.33102354 -0.078984708 0.87500006 11381932
0.33476639 -0.078894436 0.87400001 11381932
0.3388876 -0.078894436 0.87400001 11184553
0.34261632 -0.078804165 0.87300003 11447725
0.3467328 -0.078804165 0.87300003 11184553
0.35084927 -0.078804165 0.87300003 11513518
0.35496575 -0.078804165 0.87300003 11381934
0.35867089 -0.078713901 0.87200004 11381934
0.36278266 -0.078713901 0.87200004 11447727
0.36689442 -0.078713901 0.87200004 11513520
0.37143162 -0.078804165 0.87300003 11578543
0.37554809 -0.078804165 0.87300003 11710127
0.37966457 -0.078804165 0.87300003 11512748
0.38422066 -0.078894436 0.87400001 11644334
0.3887862 -0.078984708 0.87500006 11512748
0.39381018 -0.079165243 0.87700003 11578541
0.39839926 -0.079255506 0.87800002 11644334
0.40299782 -0.079345785 0.87900007 11512748
0.40760574 -0.079436049 0.88000005 11644334
0.41222313 -0.079526313 0.88100004 11644334
0.41684994 -0.079616584 0.88200003 11709614
0.4214862 -0.079706848 0.88300002 11643821
0.4261319 -0.079797126 0.88400006 11643821
0.43030024 -0.079797126 0.88400006 11709614
0.43496007 -0.07988739 0.88500005 11578541
0.43962929 -0.079977654 0.88600004 11644336
0.44380707 -0.079977654 0.88600004 11381932
0.44798484 -0.079977654 0.88600004 11644334
0.45216262 -0.079977654 0.88600004 11710127
0.45634037 -0.079977654 0.88600004 11907506
0.46051815 -0.079977654 0.88600004 11643821
0.46469593 -0.079977654 0.88600004 11578028
0.46887371 -0.079977654 0.88600004 11643821
0.47305149 -0.079977654 0.88600004 11644074
0.47722927 -0.079977654 0.88600004 11644587
0.4819504 -0.080067925 0.88700002 11710127
0.48613283 -0.080067925 0.88700002 11447725
0.49086812 -0.080158196 0.88800007 11513518
0.49505535 -0.080158196 0.88800007 11578541
0.49980474 -0.08024846 0.88900006 11578541
0.50399667 -0.08024846 0.88900006 11578543
0.50876021 -0.080338731 0.89000005 11446957
0.51295686 -0.080338731 0.89000005 11446957
0.5171535 -0.080338731 0.89000005 11446957
0.52193594 -0.080428995 0.89100003 11512750
0.52613729 -0.080428995 0.89100003 11249578
0.53033864 -0.080428995 0.89100003 11051686
0.53454 -0.080428995 0.89100003 10524059
0.53511345 -0.07988739 0.88500005 6179154
0.82856512 -0.12086917 1.3390001 4603972
0.83799636 -0.12132052 1.3440001 3816247
0.84873134 -0.12195238 1.3510001 4539970
0.86396283 -0.12321614 1.365 5919311
0.88251477 -0.12493124 1.3840001 5722184
0.90959656 -0.12781982 1.416 5655878
0.92856812 -0.12953492 1.4350001 6247499
0.94576347 -0.13097921 1.4510001 6051147
0.99724847 -0.13711745 1.5190001 6051401
-0.61374509 -0.070581153 0.82500005 6978149
-0.609855 -0.070581153 0.82500005 6978149
-0.60596484 -0.070581153 0.82500005 6978149
-0.60207474 -0.070581153 0.82500005 7043688
-0.59818459 -0.070581153 0.82500005 7043688
-0.59429449 -0.070581153 0.82500005 6977895
-0.59040433 -0.070581153 0.82500005 7043688
-0.58651417 -0.070581153 0.82500005 6911589
-0.58262402 -0.070581153 0.82500005 6845796
-0.57873392 -0.070581153 0.82500005 7108968
-0.57484376 -0.070581153 0.82500005 6780005
-0.57095361 -0.070581153 0.82500005 6780005
-0.56706345 -0.070581153 0.82500005 6780005
-0.56317335 -0.070581153 0.82500005 6911591
-0.5592832 -0.070581153 0.82500005 6780005
-0.55539304 -0.070581153 0.82500005 6911591
-0.55150288 -0.070581153 0.82500005 6648934
-0.54761279 -0.070581153 0.82500005 6714727
-0.54372269 -0.070581153 0.82500005 7043179
-0.53983253 -0.070581153 0.82500005 6911593
-0.53594238 -0.070581153 0.82500005 6845800
-0.53205222 -0.070581153 0.82500005 6780520
-0.52816212 -0.070581153 0.82500005 6911593
-0.52427197 -0.070581153 0.82500005 6911593
-0.52038181 -0.070581153 0.82500005 7239788
-0.51649165 -0.070581153 0.82500005 7042409
-0.51260155 -0.070581153 0.82500005 7174765
-0.5087114 -0.070581153 0.82500005 6911593
-0.50482124 -0.070581153 0.82500005 6977645
-0.50093108 -0.070581153 0.82500005 6977645
-0.49704096 -0.070581153 0.82500005 7240304
-0.49315083 -0.070581153 0.82500005 7306351
-0.48926067 -0.070581153 0.82500005 7372144
-0.80061495 -0.11831968 1.383 7635316
-0.79524207 -0.11849079 1.3850001 7569269
-0.78757238 -0.11831968 1.383 7503991
-0.7810511 -0.11831968 1.383 7635577
-0.77284974 -0.11806303 1.3800001 8226431
-0.76467663 -0.11780636 1.3770001 8424578
-0.75598115 -0.11746415 1.373 7567986
-0.74732351 -0.11712193 1.3690001 8093562
-0.7392447 -0.11686528 1.3660001 8028539
-0.73119414 -0.11660862 1.363 7962746
-0.72423548 -0.11652307 1.3620001 7896953
-0.71781319 -0.11652307 1.3620001 7831160
-0.71243554 -0.11669417 1.3640001 7831673
-0.70807427 -0.11703638 1.368 7765880
-0.70470107 -0.1175497 1.3740001 7634294
-0.70279568 -0.11831968 1.383 5856852
-0.70181239 -0.11926076 1.3940001 5132102
-0.7017228 -0.12037295 1.4070001 5461324
-0.70151061 -0.12148514 1.4200001 4474429
-0.70068651 -0.12251177 1.432 4804164
-0.69926471 -0.12345286 1.4430001 3948601
-0.69773912 -0.12439394 1.4540001 4211003
-0.69610977 -0.12533501 1.465 3750452
-0.69437671 -0.12627611 1.4760001 2172962
-0.69253993 -0.12721719 1.4870001 1647131
-0.69013846 -0.12807271 1.4970001 1449239
-0.6871863 -0.12884268 1.506 1383446
-0.6836977 -0.12952711 1.5140001 1186580
-0.68013364 -0.13021153 1.5220001 1120534
-0.67649412 -0.13089596 1.5300001 1186580
-0.67321658 -0.13166593 1.539 989201
-0.66985428 -0.13243592 1.5480001 1251860
-0.66683507 -0.13329144 1.5580001 1054228
-0.6637215 -0.13414697 1.5680001 1186065
-0.66093224 -0.13508806 1.5790001 1054479
-0.65803915 -0.13602912 1.59 922893
-0.65463322 -0.13688466 1.6 1054479
-0.65032417 -0.13756908 1.608 988686
-0.64514023 -0.1380824 1.6140001 1119502
-0.63950473 -0.13851017 1.6190001 1186065
-0.6330415 -0.13876683 1.6220001 1186065
-0.62577879 -0.13885237 1.623 1054479
-0.61812586 -0.13885237 1.623 1186065
-0.61047286 -0.13885237 1.623 1054479
-0.60244846 -0.13876683 1.6220001 1054479
-0.59443349 -0.13868126 1.6210001 1251860
-0.58678997 -0.13868126 1.6210001 1186067
-0.57878923 -0.13859572 1.6200001 1054481
-0.57115042 -0.13859572 1.6200001 1186067
-0.5631637 -0.13851017 1.6190001 1251858
-0.55518645 -0.13842461 1.618 1054479
-0.54721868 -0.13833906 1.6170001 1382674
-0.53959399 -0.13833906 1.6170001 1185295
-0.53164029 -0.13825351 1.6160001 1186065
-0.52337182 -0.1380824 1.6140001 1383444
-0.51544178 -0.13799684 1.613 1251858
-0.50720626 -0.13782574 1.6110001 1317653
-0.49898964 -0.13765463 1.6090001 1186067
-0.49048647 -0.13739797 1.6060001 1251860
-0.48231229 -0.13722688 1.6040001 1054481
-0.47415695 -0.13705577 1.6020001 1317653
-0.46572921 -0.13679911 1.5990001 1383446
-0.45761636 -0.136628 1.5970001 1317653
-0.44952229 -0.13645689 1.595 1251860
-0.44172427 -0.13637134 1.5940001 1251860
-0.43420804 -0.13637134 1.5940001 1186067
-0.4266918 -0.13637134 1.5940001 1251860
-0.41943854 -0.13645689 1.595 1317653
-0.41217586 -0.13654245 1.5960001 1317653
-0.40490377 -0.136628 1.5970001 1383446
-0.39762223 -0.13671355 1.598 1317653
-0.39033124 -0.13679911 1.5990001 1383446
-0.38279146 -0.13679911 1.5990001 1383446
-0.37525168 -0.13679911 1.5990001 1383446
-0.36771187 -0.13679911 1.5990001 1383193
-0.36017206 -0.13679911 1.5990001 1449239
-0.35263228 -0.13679911 1.5990001 1317653
-0.34509248 -0.13679911 1.5990001 1317653
-0.33776376 -0.13688466 1.6 1317653
-0.33021927 -0.13688466 1.6 1383446
-0.32287642 -0.13697021 1.6010001 1383446
-0.3153272 -0.13697021 1.6010001 1383446
-0.30777797 -0.13697021 1.6010001 1449237
-0.30041629 -0.13705577 1.6020001 1383446
-0.29286236 -0.13705577 1.6020001 1383446
-0.28530839 -0.13705577 1.6020001 1580055
-0.27775446 -0.13705577 1.6020001 1514262
-0.27003184 -0.13697021 1.6010001 1580055
-0.26215473 -0.13679911 1.5990001 1580055
-0.25429645 -0.136628 1.5970001 1645848
-0.24614801 -0.13628578 1.5930001 1645848
-0.2381871 -0.13602912 1.59 1777432
-0.23010939 -0.13568692 1.5860001 1777432
-0.22220977 -0.13543026 1.5830001 1777434
-0.21447413 -0.13525915 1.5810001 1712411
-0.20675732 -0.13508806 1.5790001 1646618
-0.19918559 -0.13500249 1.5780001 1778204
-0.19174482 -0.13500249 1.5780001 1778204
-0.18442084 -0.13508806 1.5790001 1909020
-0.17708743 -0.1351736 1.58 2040604
-0.1697446 -0.13525915 1.5810001 2106397
-0.16239232 -0.1353447 1.582 1778202
-0.15512855 -0.13551581 1.5840001 1843997
-0.14784592 -0.13568692 1.5860001 1975583
-0.14063294 -0.13594358 1.5890001 1975583
-0.13339166 -0.13620023 1.5920001 1909790
-0.12620117 -0.13654245 1.5960001 2107169
-0.11889859 -0.13679911 1.5990001 3751994
-0.11149807 -0.13697021 1.6010001 3817787
-0.10407871 -0.13714132 1.603 3751994
-0.096640475 -0.13731243 1.605 4080957
-0.089183383 -0.13748354 1.6070001 3949371
-0.081656642 -0.13756908 1.608 4015166
-0.07407441 -0.13756908 1.608 3751992
-0.066450827 -0.13748354 1.6070001 4080957
-0.0587634 -0.13722688 1.6040001 3686199
-0.051104262 -0.13697021 1.6010001 3751992
-0.043473423 -0.13671355 1.598 3686199
-0.035848387 -0.13637134 1.5940001 3488050
-0.028261067 -0.13602912 1.59 3290671
-0.020672299 -0.13543026 1.5830001 3094062
-0.013207947 -0.13543026 1.5830001 2765097
-0.0057435958 -0.13543026 1.5830001 2633511
0.0017207551 -0.13543026 1.5830001 2633511
0.0091851065 -0.13543026 1.5830001 2567718
0.016649457 -0.13543026 1.5830001 2436132
0.024113808 -0.13543026 1.5830001 2436132
0.018292593 -0.078452021 0.91700006 2436132
0.022616541 -0.078452021 0.91700006 2567718
0.0266467 -0.077596493 0.90700006 3159604
0.030889399 -0.077510938 0.90600002 4278338
0.03516148 -0.077510938 0.90600002 4542023
0.039868809 -0.078366473 0.91600007 5134160
0.043898601 -0.077853151 0.91000003 6120802
0.047977716 -0.077510938 0.90600002 6844012
0.052076783 -0.07725428 0.90300006 8291971
0.056209944 -0.07708317 0.90100002 9081487
0.060257144 -0.07682652 0.89800006 9278866
0.064347871 -0.07665541 0.89600003 9673624
0.068419732 -0.076484308 0.89400005 9739417
0.072472736 -0.076313198 0.89200002 9542808
0.076506868 -0.076142095 0.89000005 9477017
0.080612823 -0.07605654 0.88900006 9608603
0.084709354 -0.075970992 0.88800007 9740189
0.088796444 -0.07588543 0.88700002 9871775
0.09287411 -0.075799882 0.88600004 9871775
0.096942343 -0.075714327 0.88500005 9937568
0.10111541 -0.075714327 0.88500005 9871775
0.10516949 -0.07562878 0.88400006 9871775
0.10933784 -0.07562878 0.88400006 9937568
0.11350618 -0.07562878 0.88400006 10068384
0.11780763 -0.075714327 0.88500005 10199970
0.1219807 -0.075714327 0.88500005 10199970
0.1262963 -0.075799882 0.88600004 10134177
0.13047408 -0.075799882 0.88600004 10332326
0.13449986 -0.075714327 0.88500005 10398119
0.25018156 -0.12884268 1.506 10529705
0.25762448 -0.12901379 1.508 10793390
0.26508632 -0.1291849 1.5100001 10924465
0.27238673 -0.12927045 1.511 10661293
0.27932659 -0.1291849 1.5100001 10792879
0.28606731 -0.12901379 1.508 10990004
0.29317802 -0.12901379 1.508 11055797
0.29909396 -0.12850048 1.5020001 11121844
0.18101504 -0.075970992 0.88800007 11188150
0.18520226 -0.075970992 0.88800007 10924978
0.18938945 -0.075970992 0.88800007 10793392
0.19357666 -0.075970992 0.88800007 10529707
0.19776386 -0.075970992 0.88800007 10660523
0.20195107 -0.075970992 0.88800007 10528937
0.20613828 -0.075970992 0.88800007 10528937
0.21032548 -0.075970992 0.88800007 10463144
0.21668679 -0.076740958 0.89700001 10331558
0.219685 -0.076313198 0.89200002 10594215
0.22338907 -0.076142095 0.89000005 10528422
0.22681856 -0.07588543 0.88700002 10659238
0.23048019 -0.075714327 0.88500005 10527652
0.23412296 -0.075543217 0.88300002 10659238
0.23774688 -0.075372115 0.88100004 10659238
0.24135193 -0.075201012 0.87900007 10659238
0.24493812 -0.075029902 0.87700003 10725031
0.24878943 -0.074944355 0.87600005 10725031
0.25263134 -0.0748588 0.87500006 10855847
0.2564638 -0.074773245 0.87400001 10855847
0.26028684 -0.07468769 0.87300003 10987433
0.26440331 -0.07468769 0.87300003 11053226
0.26851979 -0.07468769 0.87300003 11119789
0.27201167 -0.074516587 0.87100005 11119789
0.2764357 -0.074602142 0.87200004 10988203
0.28119093 -0.074773245 0.87400001 10988203
0.28563857 -0.0748588 0.87500006 11119789
0.29075795 -0.075115457 0.87800002 11119789
0.29523388 -0.075201012 0.87900007 10988201
0.29903805 -0.075115457 0.87800002 10988201
0.3031781 -0.075115457 0.87800002 11119017
0.30731815 -0.075115457 0.87800002 11316396
0.31110346 -0.075029902 0.87700003 11316396
0.31487936 -0.074944355 0.87600005 11119017
0.31864581 -0.0748588 0.87500006 11250603
0.32277173 -0.0748588 0.87500006 11250603
0.32652402 -0.074773245 0.87400001 11250603
0.3306452 -0.074773245 0.87400001 11316396
0.33438337 -0.07468769 0.87300003 11382189
0.33849984 -0.07468769 0.87300003 11250603
0.34261632 -0.07468769 0.87300003 11381932
0.34633562 -0.074602142 0.87200004 11447725
0.35044739 -0.074602142 0.87200004 11381932
0.35455915 -0.074602142 0.87200004 11513518
0.35825959 -0.074516587 0.87100005 11447725
0.36236665 -0.074516587 0.87100005 11381932
0.36647367 -0.074516587 0.87100005 11381932
0.3705807 -0.074516587 0.87100005 11513518
0.37511793 -0.074602142 0.87200004 11447725
0.37922969 -0.074602142 0.87200004 11513518
0.38378105 -0.07468769 0.87300003 11447725
0.3887862 -0.0748588 0.87500006 11579311
0.39336115 -0.074944355 0.87600005 11381932
0.39794552 -0.075029902 0.87700003 11579311
0.40253931 -0.075115457 0.87800002 11644334
0.40760574 -0.075286567 0.88000005 11578541
0.41222313 -0.075372115 0.88100004 11775407
0.41637734 -0.075372115 0.88100004 11710127
0.42100886 -0.07545767 0.88200003 11578541
0.42564982 -0.075543217 0.88300002 11710127
0.43030024 -0.07562878 0.88400006 11644334
0.43446857 -0.07562878 0.88400006 11644334
0.43913308 -0.075714327 0.88500005 11578541
0.44330615 -0.075714327 0.88500005 11513518
0.44798484 -0.075799882 0.88600004 11644334
0.45165229 -0.075714327 0.88500005 11578543
0.45582533 -0.075714327 0.88500005 11775922
0.4599984 -0.075714327 0.88500005 11644334
0.46417147 -0.075714327 0.88500005 11644334
0.46834451 -0.075714327 0.88500005 11644334
0.47251758 -0.075714327 0.88500005 11644334
0.47669065 -0.075714327 0.88500005 11512748
0.48140705 -0.075799882 0.88600004 11578541
0.48613283 -0.07588543 0.88700002 11512748
0.49031532 -0.07588543 0.88700002 11645104
0.49505535 -0.075970992 0.88800007 11644334
0.49980474 -0.07605654 0.88900006 11512748
0.50399667 -0.07605654 0.88900006 11644336
0.50876021 -0.076142095 0.89000005 11578543
0.51295686 -0.076142095 0.89000005 11315371
0.5171535 -0.076142095 0.89000005 11512750
0.52135015 -0.076142095 0.89000005 11118762
0.52613729 -0.076227643 0.89100003 11316141
0.53033864 -0.076227643 0.89100003 10921383
0.53454 -0.076227643 0.89100003 10590365
0.53511345 -0.075714327 0.88500005 5786449
0.82361472 -0.11387093 1.3310001 4013118
0.8317613 -0.11412759 1.3340001 3947582
0.84182084 -0.1146409 1.34 4276547
0.85383588 -0.11541088 1.3490001 4276541
0.869124 -0.11660862 1.363 3815218
0.88904077 -0.11840523 1.3840001 4012851
0.90397888 -0.11951742 1.3970001 5722184
0.92295039 -0.12114292 1.416 5722182
0.94210112 -0.12276843 1.4350001 5590596
-0.61374509 -0.066691019 0.82500005 7175013
-0.609855 -0.066691019 0.82500005 6978149
-0.60596484 -0.066691019 0.82500005 7043942
-0.60207474 -0.066691019 0.82500005 6912616
-0.59818459 -0.066691019 0.82500005 6649444
-0.59429449 -0.066691019 0.82500005 6780516
-0.59040433 -0.066691019 0.82500005 6780516
-0.58651417 -0.066691019 0.82500005 6714723
-0.58262402 -0.066691019 0.82500005 6977895
-0.57873392 -0.066691019 0.82500005 6780516
-0.57484376 -0.066691019 0.82500005 6846311
-0.57095361 -0.066691019 0.82500005 7043177
-0.56706345 -0.066691019 0.82500005 7042659
-0.56317335 -0.066691019 0.82500005 6911073
-0.5592832 -0.066691019 0.82500005 6845796
-0.55539304 -0.066691019 0.82500005 6780003
-0.55150288 -0.066691019 0.82500005 6911591
-0.54761279 -0.066691019 0.82500005 6911591
-0.54372269 -0.066691019 0.82500005 6780518
-0.53983253 -0.066691019 0.82500005 6780520
-0.53594238 -0.066691019 0.82500005 6846311
-0.53205222 -0.066691019 0.82500005 6846311
-0.52816212 -0.066691019 0.82500005 6977897
-0.52427197 -0.066691019 0.82500005 6714212
-0.52038181 -0.066691019 0.82500005 6780007
-0.51649165 -0.066691019 0.82500005 7173995
-0.51260155 -0.066691019 0.82500005 7173995
-0.5087114 -0.066691019 0.82500005 7239788
-0.50482124 -0.066691019 0.82500005 7305581
-0.50093108 -0.066691019 0.82500005 7239788
-0.49704096 -0.066691019 0.82500005 7240558
-0.49315083 -0.066691019 0.82500005 7240558
-0.48926067 -0.066691019 0.82500005 7371890
-0.80061495 -0.11179839 1.383 7700339
-0.79409367 -0.11179839 1.383 7569269
-0.78643346 -0.11163672 1.381 7635062
-0.77992159 -0.11163672 1.381 7701370
-0.77172965 -0.1113942 1.378 8029822
-0.76356602 -0.1111517 1.3750001 8161921
-0.75543058 -0.11090919 1.3720001 7436915
-0.74677759 -0.11058583 1.368 7962493
-0.73870349 -0.11034331 1.365 8028539
-0.73119414 -0.11018164 1.363 8160125
-0.72423548 -0.11010081 1.3620001 7896953
-0.71781319 -0.11010081 1.3620001 7831673
-0.71243554 -0.11026248 1.3640001 7897466
-0.70807427 -0.11058583 1.368 7765880
-0.70521396 -0.1111517 1.3750001 7109233
-0.70330387 -0.11187923 1.3840001 5396817
-0.70231587 -0.11276845 1.3950001 5264461
-0.70222157 -0.11381934 1.4080001 5198922
-0.70200467 -0.11487023 1.4210001 4343359
-0.70117587 -0.11584028 1.4330001 4475715
-0.70023388 -0.11681032 1.4450001 4015164
-0.69869888 -0.11769954 1.4560001 3882808
-0.69753528 -0.11866959 1.4680001 3488050
-0.69672894 -0.11972048 1.4810001 2238755
-0.69533432 -0.12069052 1.493 1778204
-0.69336551 -0.12157974 1.5040001 1449239
-0.691293 -0.12246896 1.5150001 1449239
-0.68821353 -0.1231965 1.524 1251860
-0.68504918 -0.12392404 1.5330001 1186067
-0.68179995 -0.12465157 1.5420001 1251607
-0.6784659 -0.12537912 1.5510001 988688
-0.67547965 -0.12618749 1.5610001 988688
-0.67282712 -0.1270767 1.572 988688
-0.67049414 -0.12804675 1.5840001 988688
-0.66846657 -0.12909764 1.5970001 988688
-0.66590255 -0.13006769 1.6090001 988686
-0.66322529 -0.13103774 1.6210001 922893
-0.65922165 -0.13176529 1.6300001 922893
-0.65473342 -0.13241199 1.6380001 922893
-0.64937967 -0.132897 1.6440001 857100
-0.64318889 -0.13322036 1.6480001 987918
-0.63618916 -0.13338204 1.6500001 857102
-0.62878972 -0.13346286 1.651 922893
-0.62100476 -0.13346286 1.651 922893
-0.61284834 -0.13338204 1.6500001 857100
-0.60506803 -0.13338204 1.6500001 988686
-0.59692574 -0.1333012 1.649 922895
-0.58915025 -0.1333012 1.649 922895
-0.58137465 -0.1333012 1.649 922895
-0.57325131 -0.13322036 1.6480001 922895
-0.56513727 -0.13313952 1.6470001 988688
-0.55737114 -0.13313952 1.6470001 1186067
-0.54927129 -0.13305868 1.646 988688
-0.54118091 -0.13297784 1.6450001 922895
-0.53309989 -0.132897 1.6440001 1185297
-0.52502847 -0.13281618 1.6430001 1316883
-0.51696628 -0.13273533 1.6420001 1185297
-0.50891364 -0.13265449 1.641 1054481
-0.50087035 -0.13257366 1.6400001 988688
-0.49253586 -0.13241199 1.6380001 1054481
-0.48422018 -0.13225031 1.636 988688
-0.47592339 -0.13208863 1.6340001 988688
-0.46735895 -0.13184611 1.631 1054481
-0.4591046 -0.13168444 1.6290001 1185814
-0.45086911 -0.13152277 1.6270001 988435
-0.44265249 -0.1313611 1.6250001 1054481
-0.43499008 -0.1313611 1.6250001 1054481
-0.42732769 -0.1313611 1.6250001 1251860
-0.41966528 -0.1313611 1.6250001 1251860
-0.41200289 -0.1313611 1.6250001 1054228
-0.40409166 -0.13128026 1.6240001 1251860
-0.39643398 -0.13128026 1.6240001 1186067
-0.38853693 -0.13119942 1.623 1054481
-0.3806493 -0.13111858 1.6220001 989201
-0.3725411 -0.1309569 1.6200001 989201
-0.36467701 -0.13087606 1.6190001 1120787
