# .PCD v0.7 - Point Cloud Data file format
VERSION 0.7
FIELDS x y z rgb
SIZE 4 4 4 4
TYPE F F F U
COUNT 1 1 1 1
WIDTH 1040
HEIGHT 1
VIEWPOINT 0 0 0 1 0 0 0
POINTS 1040
DATA ascii
-0.1769083 -0.12100361 0.53404063 4289113533
-0.17581402 -0.12100474 0.53404558 4289114046
-0.17471972 -0.12100587 0.53405058 4289114046
-0.173503 -0.12054124 0.53200001 4289048510
-0.17141369 -0.11984378 0.52892178 4289114046
-0.16224159 -0.11379138 0.50220996 4288719288
-0.16040392 -0.11286095 0.49810359 4288258994
-0.15872552 -0.11239625 0.49605265 4288588474
-0.15789019 -0.11216442 0.49502948 4289246149
-0.1568758 -0.11216546 0.49503407 4289509321
-0.15586139 -0.1121665 0.49503869 4289575116
-0.15484697 -0.11216754 0.49504328 4289575116
-0.1538325 -0.11216858 0.49504787 4289640909
-0.15180354 -0.11217067 0.49505708 4289706961
-0.151297 -0.11217172 0.4950617 4289706961
-0.14368829 -0.11218006 0.49509853 4289838290
-0.14165895 -0.11218215 0.49510774 4289904083
-0.14064424 -0.11218319 0.49511233 4289969876
-0.1396295 -0.11218423 0.49511692 4289904083
-0.13861477 -0.11218527 0.49512154 4289969876
-0.1378857 -0.11241925 0.49615416 4289969876
-0.1368688 -0.11242028 0.49615875 4290035669
-0.13613337 -0.11265426 0.49719137 4290035669
-0.13539372 -0.11288824 0.49822402 4290101719
-0.13488376 -0.11288928 0.49822864 4290167512
-0.13386258 -0.11289034 0.49823329 4290365145
-0.13284139 -0.11289139 0.49823791 4290628317
-0.13263616 -0.11359124 0.50132668 4290694110
-0.13243836 -0.114757 0.50647169 4290957280
-0.13300595 -0.11662162 0.51470101 4286878114
-0.1340479 -0.11895214 0.52498662 4288457146
-0.13476725 -0.12104977 0.53424436 4289707213
-0.13470112 -0.12198269 0.53836173 4289641420
-0.13385271 -0.12221678 0.53939486 4289641420
-0.13274705 -0.12221792 0.53939986 4289510604
-0.13164136 -0.12221905 0.53940487 4289444811
-0.13108914 -0.1222202 0.53940994 4289444811
-0.12998341 -0.12222133 0.53941494 4289444811
-0.17796755 -0.11988261 0.53393072 4289113787
-0.17687352 -0.11988372 0.53393567 4289179326
-0.17577946 -0.11988483 0.53394061 4289048253
-0.17468539 -0.11988596 0.53394562 4289114046
-0.17380403 -0.11965635 0.53292304 4289114046
-0.16572048 -0.11481363 0.51135457 4289179839
-0.1625417 -0.11296897 0.5031389 4289048253
-0.16037242 -0.11181644 0.49800575 4288654008
-0.15869434 -0.11135603 0.49595523 4288720060
-0.15818694 -0.11135708 0.49595985 4289311942
-0.15717064 -0.11135811 0.49596447 4289509321
-0.15615432 -0.11135914 0.49596909 4289640909
-0.15481654 -0.11112945 0.49494606 4289575116
-0.15380229 -0.11113048 0.49495065 4289640909
-0.14467452 -0.11114082 0.4949967 4289838290
-0.14366008 -0.11114185 0.49500132 4289904083
-0.14264561 -0.11114289 0.49500591 4289904083
-0.14163111 -0.11114391 0.4950105 4289904083
-0.14061661 -0.11114495 0.49501511 4289904083
-0.13989195 -0.11137675 0.4960475 4289969876
-0.13887529 -0.11137779 0.49605212 4289969876
-0.13785863 -0.11137883 0.49605674 4290035669
-0.13712546 -0.11161062 0.49708912 4290035669
-0.13661668 -0.11161166 0.49709374 4290035669
-0.13587824 -0.11184348 0.49812621 4290035669
-0.13513555 -0.11207529 0.49915865 4290101719
-0.13356014 -0.11161477 0.4971076 4290365145
-0.1328153 -0.1118466 0.4981401 4290562524
-0.13261011 -0.11253998 0.50122827 4290562524
-0.13241236 -0.11369495 0.50637221 4290891487
-0.13324544 -0.11577308 0.5156278 4286943907
-0.13428403 -0.11808205 0.52591139 4288588731
-0.13500005 -0.12016025 0.53516728 4289641419
-0.13493182 -0.12108455 0.53928387 4289641420
-0.1338264 -0.12108567 0.53928888 4289641677
-0.13272096 -0.1210868 0.53929389 4289510604
-0.1316155 -0.12108793 0.53929895 4289510350
-0.13106337 -0.12108906 0.53930396 4289510350
-0.12995787 -0.12109018 0.53930897 4289510350
-0.17827497 -0.11899171 0.53485304 4289179580
-0.17717905 -0.11899281 0.53485799 4289114300
-0.17574492 -0.11876538 0.53383571 4289114046
-0.17465104 -0.11876648 0.53384066 4289048253
-0.17376988 -0.11853904 0.53281832 4288982460
-0.16955085 -0.11602601 0.52152258 4289114046
-0.16602086 -0.11397008 0.51228142 4289180095
-0.16284163 -0.11214264 0.50406736 4289049023
-0.16067176 -0.11100089 0.49893528 4288720059
-0.1589919 -0.11054479 0.49688518 4288785855
-0.15815586 -0.11031725 0.49586242 4289377737
-0.15713976 -0.11031828 0.49586704 4289509323
-0.15580016 -0.11009073 0.49484423 4289575116
-0.15478614 -0.11009175 0.49484885 4289640909
-0.15377207 -0.11009278 0.49485344 4289640909
-0.14819515 -0.11009892 0.49488106 4289772497
-0.14718099 -0.11009996 0.49488568 4289772497
-0.14616677 -0.11010097 0.49489027 4289838290
-0.14566034 -0.110102 0.49489489 4289838290
-0.14464612 -0.11010303 0.49489948 4289838290
-0.14363188 -0.11010404 0.49490407 4289838290
-0.1426176 -0.11010507 0.49490869 4289904083
-0.14160331 -0.1101061 0.49491328 4289904083
-0.140589 -0.11010712 0.4949179 4289969876
-0.13986447 -0.11033675 0.49595007 4289904083
-0.13884802 -0.11033778 0.49595469 4289969876
-0.13783155 -0.1103388 0.49595931 4289969876
-0.13709852 -0.11056844 0.49699149 4290035669
-0.13658985 -0.11056947 0.4969961 4290035669
-0.13585153 -0.11079913 0.49802837 4290035669
-0.13455258 -0.11057153 0.49700537 4290036183
-0.13381001 -0.11080118 0.49803764 4290365145
-0.13278922 -0.11080221 0.49804226 4290562524
-0.13258407 -0.11148912 0.50112981 4290628317
-0.13265508 -0.11286193 0.50730044 4290825437
-0.13321926 -0.11469202 0.51552647 4287140773
-0.13425763 -0.11697941 0.52580804 4288654525
-0.13575128 -0.11972415 0.53814524 4289509834
-0.13490532 -0.11995389 0.53917789 4289641420
-0.13380012 -0.11995501 0.53918296 4289575884
-0.1326949 -0.11995613 0.53918797 4289510605
-0.13158964 -0.11995724 0.53919297 4289510350
-0.13103762 -0.11995835 0.53919798 4289510350
-0.12993234 -0.11995947 0.53920299 4289510350
-0.16280966 -0.11160333 0.50396836 4289049023
-0.16030942 -0.11023959 0.4978101 4288785851
-0.15914068 -0.10978569 0.49576041 4288522679
-0.15826924 -0.11024164 0.49781936 4289575116
-0.15710889 -0.10978772 0.49576962 4289575116
-0.15609297 -0.10978875 0.49577424 4289640909
-0.15475573 -0.10956229 0.49475163 4289575116
-0.15374187 -0.10956331 0.49475622 4289640909
-0.15323566 -0.10956433 0.49476084 4289575375
-0.14918 -0.10956841 0.49477926 4289706704
-0.14816603 -0.10956942 0.49478385 4289772497
-0.14715207 -0.10957045 0.49478847 4289772497
-0.14613807 -0.10957147 0.49479306 4289772497
-0.14563173 -0.10957248 0.49479765 4289838290
-0.14461771 -0.10957351 0.49480227 4289772497
-0.14360365 -0.10957453 0.49480686 4289838290
-0.14258958 -0.10957554 0.49481148 4289904083
-0.14157549 -0.10957656 0.49481606 4289838290
-0.14085321 -0.10980509 0.49584803 4289904083
-0.139837 -0.10980611 0.49585265 4289969876
-0.13910836 -0.11003464 0.49688461 4289969876
-0.13780448 -0.10980816 0.49586189 4289969876
-0.13758144 -0.11003669 0.49689388 4289969876
-0.13656302 -0.11003772 0.4968985 4290035669
-0.13582486 -0.11026625 0.49793053 4290035669
-0.13452615 -0.11003976 0.49690774 4290101719
-0.13378373 -0.11026831 0.4979398 4290365145
-0.17823994 -0.11787054 0.5347479 4289179580
-0.17714421 -0.11787163 0.53475285 4289114300
-0.1760485 -0.11787274 0.53475785 4289114046
-0.17461671 -0.11764743 0.53373569 4289114046
-0.17373572 -0.11742214 0.53271359 4289048253
-0.16951755 -0.1149328 0.52142012 4289114046
-0.16598824 -0.11289623 0.51218075 4289180096
-0.13303708 -0.1099847 0.49897185 4290562524
-0.13282986 -0.11066513 0.5020588 4290628317
-0.13289769 -0.11202501 0.50822824 4290759901
-0.13372411 -0.11406434 0.51748013 4287141286
-0.1344936 -0.11610371 0.52673221 4288720318
-0.13572457 -0.11859608 0.53803945 4289575627
-0.13487881 -0.11882367 0.53907198 4289641420
-0.13377382 -0.11882477 0.53907698 4289575883
-0.1329217 -0.11905237 0.54010952 4289510605
-0.13211691 -0.11882698 0.539087 4289510350
-0.13101186 -0.11882808 0.539092 4289510350
-0.12990682 -0.11882921 0.53909707 4289444557
-0.17820489 -0.11729859 0.53464276 4289179580
-0.17710939 -0.11729968 0.5346477 4289114046
-0.17601389 -0.11730077 0.53465271 4289114046
-0.17512992 -0.11707657 0.53363079 4289114046
-0.17269683 -0.11617645 0.52952808 4289048253
-0.16981807 -0.11460041 0.52234453 4289114047
-0.1659556 -0.11234842 0.51208007 4289180096
-0.16277765 -0.11054701 0.5038693 4289114816
-0.1606086 -0.10942149 0.49873921 4288785851
-0.15943906 -0.10897188 0.49668992 4288522680
-0.15856464 -0.10942353 0.49874851 4289575116
-0.15740347 -0.10897392 0.49669918 4289575116
-0.15606229 -0.10874961 0.49567682 4289640909
-0.15504657 -0.10875062 0.49568143 4289575116
-0.15403081 -0.10875164 0.49568605 4289575116
-0.15320554 -0.10852732 0.49466363 4289575374
-0.15219185 -0.10852832 0.49466822 4289575375
-0.15117815 -0.10852934 0.49467283 4289641168
-0.15016444 -0.10853035 0.49467742 4289640911
-0.14915068 -0.10853136 0.49468204 4289706704
-0.14813693 -0.10853237 0.49468663 4289706704
-0.14712314 -0.10853337 0.49469122 4289706704
-0.14661694 -0.10853439 0.49469584 4289706704
-0.14560312 -0.10853539 0.49470043 4289772497
-0.14458929 -0.10853641 0.49470505 4289772497
-0.14357543 -0.10853742 0.49470964 4289772497
-0.14256157 -0.10853843 0.49471426 4289838290
-0.14154768 -0.10853944 0.49471885 4289904083
-0.14082555 -0.1087658 0.49575064 4289904083
-0.13980952 -0.10876682 0.49575523 4289904083
-0.13879347 -0.10876782 0.49575984 4289969876
-0.13828608 -0.10876884 0.49576446 4289904083
-0.13755439 -0.10899521 0.49679625 4289969876
-0.13653621 -0.10899622 0.49680087 4289969876
-0.13551797 -0.10899724 0.49680549 4290035669
-0.13449973 -0.10899825 0.49681011 4290101719
-0.13375746 -0.10922464 0.49784198 4290365145
-0.13301095 -0.10945102 0.49887383 4290496731
-0.13280375 -0.11012816 0.50196016 4290628317
-0.1328716 -0.11148144 0.5081284 4290760414
-0.13369782 -0.11351087 0.51737845 4287076263
-0.13627803 -0.1170187 0.53587413 4289180869
-0.1356979 -0.11746845 0.53793371 4289641420
-0.13485229 -0.11769388 0.538966 4289707213
-0.13374752 -0.11769497 0.53897101 4289575627
-0.13289554 -0.11792039 0.5400033 4289444812
-0.13209094 -0.11769715 0.53898102 4289444557
-0.13123578 -0.11792259 0.54001337 4289510350
-0.13012883 -0.11792368 0.54001838 4289510350
-0.17816983 -0.11617816 0.53453755 4289179328
-0.17707457 -0.11617925 0.53454256 4289114048
-0.17597926 -0.11618035 0.53454757 4289114048
-0.17543241 -0.11618142 0.53455251 4289114048
-0.17232803 -0.11484361 0.52839726 4289114048
-0.16945089 -0.11328261 0.52121508 4289114048
-0.16592297 -0.1112753 0.5119794 4289114305
-0.16274565 -0.10949109 0.50377023 4288983233
-0.16057704 -0.10837633 0.49864119 4288654267
-0.16119796 -0.10949313 0.50377959 4288851648
-0.15853347 -0.10837834 0.49865046 4289575116
-0.15737253 -0.10793303 0.49660155 4289509323
-0.15603162 -0.10771087 0.49557939 4289575116
-0.15501609 -0.10771187 0.49558401 4289575116
-0.15400054 -0.10771288 0.49558863 4289575116
-0.15349345 -0.10771387 0.49559322 4289509582
-0.15216194 -0.1074917 0.494571 4289575375
-0.15114845 -0.10749271 0.49457562 4289575375
-0.15013492 -0.1074937 0.49458021 4289640911
-0.14912137 -0.1074947 0.49458483 4289640911
-0.14810783 -0.1074957 0.49458942 4289640911
-0.14709423 -0.1074967 0.49459401 4289706704
-0.14658813 -0.10749771 0.49459863 4289772497
-0.14557451 -0.10749871 0.49460322 4289706704
-0.14456089 -0.10749971 0.49460784 4289772497
-0.14354721 -0.1075007 0.49461243 4289838290
-0.14253356 -0.10750172 0.49461704 4289838290
-0.1418137 -0.10772591 0.49564859 4289838290
-0.14079788 -0.10772691 0.49565321 4289838290
-0.13978206 -0.10772792 0.49565783 4289838290
-0.13905372 -0.10795212 0.49668938 4289904083
-0.1382589 -0.10772992 0.49566704 4289904083
-0.13752738 -0.10795412 0.49669862 4289969876
-0.13650937 -0.10795513 0.49670324 4289969876
-0.13549133 -0.10795613 0.49670786 4290035669
-0.13447329 -0.10795715 0.49671251 4290101719
-0.13373117 -0.10818136 0.49774414 4290234073
-0.1329848 -0.10840559 0.49877581 4290365659
-0.1330494 -0.10929948 0.50288862 4290562524
-0.13311402 -0.11063983 0.50905555 4290760671
-0.13393697 -0.11264989 0.51830387 4287076263
-0.13625123 -0.11644576 0.53576875 4289246662
-0.13567124 -0.11689332 0.53782797 4289641420
-0.13482578 -0.11711763 0.53886002 4289641420
-0.13372123 -0.11711872 0.53886503 4289510091
-0.13286942 -0.11734304 0.53989714 4289444812
-0.13231671 -0.11734414 0.53990221 4289510350
-0.13120998 -0.11734523 0.53990722 4289510350
-0.13010325 -0.11734632 0.53991222 4289576143
-0.17813478 -0.11505819 0.53443241 4289179328
-0.17703973 -0.11505926 0.53443742 4289114048
-0.17594463 -0.11506033 0.53444237 4289114046
-0.17472416 -0.11461943 0.53239441 4289114046
-0.17262891 -0.11395749 0.52931982 4289114047
-0.16975127 -0.11241155 0.52213907 4289114048
-0.16622303 -0.11042359 0.51290524 4289114305
-0.16304529 -0.1086566 0.50469774 4289048769
-0.16087605 -0.10755257 0.49956968 4288654267
-0.16149476 -0.10865863 0.50470716 4288851391
-0.15882868 -0.10755458 0.49957898 4289575116
-0.15734158 -0.10689255 0.49650392 4289575116
-0.15632416 -0.10689354 0.49650854 4289575116
-0.15498561 -0.10667352 0.49548659 4289509323
-0.15397027 -0.10667452 0.49549121 4289575116
-0.15346329 -0.10667551 0.49549583 4289575374
-0.15213205 -0.10645548 0.49447379 4289575375
-0.15111874 -0.10645647 0.4944784 4289575375
-0.15010542 -0.10645746 0.49448299 4289640911
-0.14909206 -0.10645845 0.49448758 4289706704
-0.14807869 -0.10645945 0.4944922 4289706704
-0.14706531 -0.10646043 0.49449679 4289706704
-0.1465593 -0.10646143 0.49450141 4289706704
-0.14554588 -0.10646241 0.494506 4289772497
-0.14453247 -0.10646341 0.49451062 4289838290
-0.143519 -0.10646439 0.49451521 4289838290
-0.14250554 -0.10646539 0.49451983 4289772497
-0.14149204 -0.10646638 0.49452442 4289838290
-0.14077021 -0.10668842 0.49555579 4289838290
-0.13975458 -0.10668942 0.49556041 4289838290
-0.13902637 -0.10691146 0.49659175 4289838290
-0.13851812 -0.10691244 0.49659637 4289838290
-0.13750033 -0.10691344 0.49660099 4289838290
-0.13648254 -0.10691444 0.49660563 4289969876
-0.13546471 -0.10691544 0.49661025 4290035669
-0.13472484 -0.10713749 0.49764168 4290036183
-0.13370489 -0.1071385 0.49764633 4290299352
-0.13295868 -0.10736055 0.49867776 4290431195
-0.13302325 -0.10824582 0.50278974 4290496731
-0.13308787 -0.10957325 0.50895548 4290760671
-0.13628621 -0.11399571 0.52949733 4287997107
-0.13648561 -0.1155443 0.53669035 4289312455
-0.13590358 -0.11598752 0.53874904 4289641420
-0.13479926 -0.1159886 0.53875405 4289641420
-0.13394977 -0.11621076 0.53978598 4289510090
-0.1328433 -0.11621184 0.53979099 4289575628
-0.13229066 -0.11621291 0.53979599 4289641422
-0.13118419 -0.11621401 0.53980106 4289707215
-0.13007766 -0.11621508 0.53980607 4289641679
-0.17809974 -0.11393864 0.53432727 4289179326
-0.17700489 -0.11393971 0.53433228 4289113534
-0.17645828 -0.11394077 0.53433722 4289179327
-0.1750266 -0.11372299 0.53331596 4289114048
-0.17292964 -0.1130675 0.53024197 4289179841
-0.16971789 -0.11131776 0.52203637 4289179841
-0.16652294 -0.10956799 0.51383066 4289245634
-0.16334479 -0.1078182 0.50562483 4289179841
-0.16494437 -0.10957003 0.51384026 4288193716
-0.16159995 -0.10803906 0.50666058 4289443530
-0.15912375 -0.10672691 0.50050712 4289640652
-0.15731065 -0.10585246 0.49640629 4289640909
-0.15629344 -0.10585346 0.49641094 4289575116
-0.15495515 -0.10563558 0.49538916 4289575116
-0.15444829 -0.10563656 0.49539378 4289640909
-0.15311521 -0.10541867 0.49437198 4289575375
-0.15210213 -0.10541965 0.49437657 4289575375
-0.15108901 -0.10542063 0.49438116 4289640911
-0.1500759 -0.10542162 0.49438578 4289640911
-0.14906275 -0.10542259 0.49439037 4289706704
-0.14804959 -0.10542358 0.49439499 4289706704
-0.1475437 -0.10542455 0.49439958 4289772497
-0.14653049 -0.10542554 0.4944042 4289706704
-0.14551727 -0.10542652 0.49440879 4289772497
-0.14450406 -0.1054275 0.49441341 4289838290
-0.14349079 -0.10542849 0.494418 4289838290
-0.14247753 -0.10542947 0.49442261 4289838290
-0.14146423 -0.10543045 0.4944272 4289838290
-0.14074253 -0.10565034 0.49545836 4289838290
-0.1397271 -0.10565131 0.49546298 4289838290
-0.13899904 -0.10587119 0.49649414 4289838290
-0.13849092 -0.10587218 0.49649876 4289838290
-0.13775755 -0.10609207 0.49752995 4289838290
-0.13645571 -0.10587416 0.496508 4289969876
-0.13571812 -0.10609405 0.49753922 4290035669
-0.13469838 -0.10609504 0.49754387 4290101719
-0.13395442 -0.10631493 0.49857509 4290365145
-0.13320625 -0.10653484 0.49960634 4290496731
-0.1329971 -0.10719258 0.50269091 4290430938
-0.13333017 -0.10872601 0.50988209 4290694878
-0.13625942 -0.11288651 0.5293932 4288128950
-0.13645877 -0.11442003 0.53658479 4289378248
-0.13587685 -0.11485893 0.53864306 4289641420
-0.13502963 -0.11507893 0.53967476 4289641420
-0.13392341 -0.11508001 0.53967983 4289509834
-0.13306984 -0.11530001 0.54071152 4289575628
-0.13226466 -0.11508214 0.53968984 4289641422
-0.13115838 -0.11508323 0.53969491 4289707215
-0.13005209 -0.11508429 0.53969991 4289707215
-0.17806469 -0.11281952 0.53422213 4289113535
-0.17697008 -0.11282058 0.53422713 4289179328
-0.17642356 -0.11282163 0.53423208 4289179584
-0.17499214 -0.11260599 0.53321099 4289179840
-0.17289563 -0.11195695 0.53013766 4289179840
-0.17001812 -0.1104411 0.52295983 4289114304
-0.16682273 -0.10870852 0.51475573 4289114561
-0.16364413 -0.1069759 0.50655144 4288983232
-0.16208792 -0.1069779 0.50656092 4288654269
-0.15909246 -0.10567865 0.50040871 4289575116
-0.15727971 -0.10481279 0.49630868 4289575116
-0.1562627 -0.10481377 0.4963133 4289575116
-0.15492468 -0.10459803 0.49529174 4289509580
-0.15340294 -0.10459998 0.49530098 4289575374
-0.15137295 -0.10460192 0.49531019 4289575375
-0.14274527 -0.10461069 0.49535173 4289838290
-0.14173007 -0.10461166 0.49535632 4289838290
-0.14071485 -0.10461264 0.49536094 4289838290
-0.13998906 -0.10483036 0.49639189 4289838290
-0.13948104 -0.10483133 0.49639651 4289838290
-0.13846368 -0.10483231 0.49640113 4289904083
-0.13744627 -0.10483329 0.49640575 4289838290
-0.13642888 -0.10483426 0.49641037 4289904083
-0.13569143 -0.105052 0.49744141 4290035669
-0.13494974 -0.10526973 0.49847242 4290101719
-0.13392808 -0.10527072 0.49847707 4290365145
-0.13318005 -0.10548846 0.49950811 4290430938
-0.13324249 -0.10635651 0.50361848 4290365145
-0.1354544 -0.10982578 0.52004617 4290365913
-0.13649681 -0.1119945 0.53031552 4288260536
-0.13669296 -0.11351296 0.53750569 4289444041
-0.13585013 -0.11373079 0.53853714 4289575627
-0.13474625 -0.11373185 0.53854215 4289641420
-0.13389707 -0.11394968 0.53957361 4289575627
-0.13334468 -0.11395074 0.53957868 4289575627
-0.13223864 -0.1139518 0.53958368 4289641422
-0.13113257 -0.11395286 0.53958869 4289707215
-0.1300265 -0.11395393 0.53959376 4289641422
-0.17319618 -0.11160646 0.53105921 4289114559
-0.17031817 -0.11009829 0.52388281 4289049279
-0.16712239 -0.10837448 0.51568037 4289114816
-0.1681712 -0.11010034 0.52389258 4287864749
-0.16205604 -0.10643701 0.50646126 4288588475
-0.15906115 -0.10514432 0.50031024 4289575372
-0.15724878 -0.10428284 0.49621105 4289575116
-0.15590894 -0.1040682 0.49518973 4289509580
-0.15489419 -0.10406916 0.49519432 4289509836
-0.15438753 -0.10407013 0.49519894 4289509836
-0.15337278 -0.1040711 0.49520355 4289509582
-0.14068718 -0.1040837 0.49526352 4289838290
-0.14018032 -0.10408467 0.49526814 4289838290
-0.1394536 -0.1043013 0.49629888 4289838290
-0.13843644 -0.10430227 0.4963035 4289904083
-0.13741925 -0.10430324 0.49630812 4289838290
-0.13640204 -0.10430421 0.49631274 4289904083
-0.13566475 -0.10452084 0.49734357 4290035669
-0.13492322 -0.10473748 0.4983744 4290101719
-0.13390175 -0.10473845 0.49837902 4290233559
-0.13315387 -0.10495509 0.49940988 4290365145
-0.13321628 -0.10581875 0.50351942 4290299352
-0.17837158 -0.11191538 0.53514284 4289048510
-0.17727508 -0.11191643 0.53514785 4289049023
-0.17672761 -0.11191747 0.53515279 4289049023
-0.17495771 -0.11148942 0.53310603 4288983487
-0.13569506 -0.10895141 0.52097011 4290168534
-0.13620582 -0.1106694 0.52918494 4288326329
-0.13640507 -0.11217279 0.53637367 4289444041
-0.1358234 -0.11260308 0.53843117 4289509834
-0.13497651 -0.11281875 0.53946245 4289575627
-0.13387072 -0.1128198 0.53946745 4289575627
-0.1330175 -0.11303548 0.54049879 4289641421
-0.13221262 -0.1128219 0.53947753 4289641422
-0.13135621 -0.11303759 0.54050887 4289707215
-0.13000092 -0.11282401 0.5394876 4289641422
-0.17833644 -0.11134415 0.53503746 4288917950
-0.17724016 -0.1113452 0.53504246 4288983743
-0.17669283 -0.11134624 0.53504747 4288983743
-0.17525989 -0.11113384 0.5340268 4288918207
-0.17316209 -0.11049451 0.53095466 4288918465
-0.17028466 -0.10900135 0.52377969 4288852930
-0.16708949 -0.10729472 0.51557887 4288918722
-0.16813809 -0.10900339 0.52378947 4287602093
-0.16202414 -0.10537656 0.5063616 4288457147
-0.15954311 -0.10409676 0.50021183 4289312457
-0.15721785 -0.10324385 0.49611342 4289575116
-0.15537173 -0.10303232 0.49509692 4289509579
-0.15334259 -0.10303424 0.49510613 4289509582
-0.15131341 -0.10303616 0.49511537 4289509582
-0.14928412 -0.10303807 0.49512458 4289575118
-0.14826946 -0.10303904 0.4951292 4289575118
-0.14776281 -0.10303999 0.49513382 4289575118
-0.14573339 -0.10304191 0.49514303 4289706704
-0.14471865 -0.10304288 0.49514765 4289706704
-0.14370389 -0.10304384 0.49515226 4289772497
-0.14268912 -0.10304479 0.49515688 4289706704
-0.14167432 -0.10304575 0.4951615 4289706704
-0.14065951 -0.10304672 0.49516609 4289772497
-0.139934 -0.10326117 0.49619663 4289838290
-0.13942617 -0.10326213 0.49620125 4289838290
-0.13840921 -0.1032631 0.4962059 4289772497
-0.13739222 -0.10326406 0.49621052 4289772497
-0.13665718 -0.10347854 0.49724111 4289838290
-0.13563806 -0.1034795 0.49724576 4289904083
-0.13489668 -0.10369398 0.49827635 4290035926
-0.13387541 -0.10369495 0.498281 4290299352
-0.13312769 -0.10390943 0.49931166 4290299352
-0.13429597 -0.10604561 0.50957656 4290102741
-0.1354011 -0.1081818 0.51984155 4290036948
-0.13644311 -0.11031807 0.53010684 4288457915
-0.13663916 -0.11181378 0.53729415 4289444041
-0.13579667 -0.11202835 0.53832519 4289509834
-0.13494995 -0.11224293 0.53935629 4289575627
-0.13439779 -0.11224397 0.5393613 4289641420
-0.1332922 -0.11224502 0.5393663 4289575627
-0.13218661 -0.11224607 0.53937137 4289641422
-0.13108099 -0.11224712 0.53937638 4289707215
-0.12997532 -0.11224815 0.53938138 4289641422
-0.17830135 -0.11022408 0.53493214 4289049021
-0.17775415 -0.11022512 0.53493714 4289049021
-0.17665803 -0.11022614 0.53494209 4288983743
-0.17522536 -0.11001586 0.5339216 4288983743
-0.17312798 -0.10938297 0.53085011 4288983743
-0.17058453 -0.10811616 0.52470207 4288983743
-0.17149714 -0.10938501 0.53086001 4288917950
-0.16547298 -0.10621737 0.51548702 4287667883
-0.16232041 -0.10452785 0.5072875 4288391095
-0.15951172 -0.1030496 0.50011337 4289246149
-0.15718691 -0.10220528 0.49601582 4289640907
-0.15584759 -0.10199492 0.49499488 4289575114
-0.15534115 -0.10199587 0.4949995 4289509323
-0.1543268 -0.10199682 0.49500409 4289509323
-0.15331241 -0.10199776 0.49500871 4289575117
-0.15229803 -0.10199872 0.49501333 4289575118
-0.15128362 -0.10199967 0.49501795 4289509325
-0.15026921 -0.10200062 0.49502257 4289443789
-0.14925474 -0.10200156 0.49502715 4289444045
-0.14874822 -0.10200252 0.49503177 4289378509
-0.14773373 -0.10200348 0.49503639 4289509582
-0.14671923 -0.10200442 0.49504101 4289509582
-0.1457047 -0.10200537 0.4950456 4289575375
-0.14469017 -0.10200632 0.49505022 4289641168
-0.14367561 -0.10200727 0.49505484 4289641168
-0.14266105 -0.10200823 0.49505946 4289706961
-0.14164646 -0.10200918 0.49506408 4289706961
-0.14113981 -0.10201012 0.49506867 4289706961
-0.14041549 -0.10222244 0.49609903 4289706961
-0.13911052 -0.10201202 0.49507791 4289772497
-0.13838197 -0.10222434 0.49610826 4289838290
-0.13736519 -0.10222528 0.49611288 4289706961
-0.1366303 -0.1024376 0.4971433 4289838290
-0.13561137 -0.10243855 0.49714792 4289904083
-0.13487014 -0.10265087 0.49817833 4289905110
-0.13384908 -0.10265183 0.49818298 4290102489
-0.13310148 -0.10286415 0.4992134 4290168280
-0.13453989 -0.10519021 0.51050204 4290167764
-0.13564165 -0.10730492 0.52076507 4289904592
-0.13641624 -0.10920832 0.53000247 4288720317
-0.13661227 -0.11068899 0.53718841 4289509834
-0.13576992 -0.1109014 0.53821921 4289575627
-0.13492338 -0.11111382 0.53925014 4289575627
-0.13437134 -0.11111485 0.53925514 4289641420
-0.13326596 -0.11111589 0.53926015 4289575629
-0.13216059 -0.11111692 0.53926522 4289707215
-0.13105518 -0.11111796 0.53927022 4289707215
-0.13019696 -0.11133039 0.54030114 4289707215
-0.17826623 -0.10910444 0.53482676 4289049021
-0.17771912 -0.10910545 0.53483176 4289049022
-0.17662326 -0.10910648 0.53483677 4288983743
-0.17519085 -0.10889834 0.53381646 4289049536
-0.17309389 -0.10827188 0.53074557 4289049536
-0.17021762 -0.10680877 0.52357346 4288983743
-0.17146337 -0.10827389 0.53075546 4288852157
-0.16860911 -0.10681076 0.52358323 4288260020
-0.1654404 -0.10513843 0.51538551 4287865262
-0.16196036 -0.1032569 0.50616229 4288391096
-0.15948032 -0.10200285 0.50001496 4289180356
-0.15683104 -0.10095794 0.49489284 4289640907
-0.15429644 -0.10096076 0.49490669 4289640909
-0.15328225 -0.1009617 0.49491128 4289640910
-0.15226807 -0.10096264 0.4949159 4289575118
-0.15125385 -0.10096358 0.49492052 4289575118
-0.15023963 -0.10096453 0.49492514 4289575118
-0.14922537 -0.10096546 0.49492973 4289509325
-0.14871894 -0.10096641 0.49493435 4289509582
-0.14770466 -0.10096735 0.49493897 4289509325
-0.14669037 -0.10096829 0.49494359 4289509582
-0.14567603 -0.10096923 0.49494821 4289575375
-0.14466169 -0.10097016 0.4949528 4289575631
-0.14364736 -0.1009711 0.49495742 4289510352
-0.14263296 -0.10097206 0.49496204 4289575888
-0.14161858 -0.100973 0.49496666 4289706961
-0.14111203 -0.10097393 0.49497128 4289706961
-0.14038786 -0.10118408 0.49600139 4289641168
-0.13908316 -0.10097581 0.49498048 4289706961
-0.13835475 -0.10118597 0.49601063 4289772497
-0.13733815 -0.10118691 0.49601525 4289706961
-0.13660342 -0.10139707 0.49704546 4289838290
-0.1355847 -0.10139802 0.49705011 4289904083
-0.1348436 -0.10160817 0.49808031 4289905108
-0.13382272 -0.10160913 0.49808493 4290102487
-0.13444255 -0.10286541 0.50424325 4290102487
-0.13451341 -0.10412171 0.51040161 4290233557
-0.13561496 -0.10621496 0.52066261 4289641420
-0.13638939 -0.10809901 0.52989817 4288851904
-0.13658537 -0.10956463 0.53708261 4289444041
-0.13574322 -0.1097749 0.5381133 4289509834
-0.13489681 -0.10998514 0.53914392 4289641421
-0.13434489 -0.10998617 0.53914899 4289641421
-0.13323973 -0.10998719 0.53915399 4289575629
-0.13213456 -0.10998821 0.539159 4289707215
-0.13127863 -0.11019848 0.54018974 4289707215
-0.13017133 -0.1101995 0.54019475 4289641422
-0.17768411 -0.10798623 0.53472638 4289049022
-0.17658845 -0.10798724 0.53473139 4288983743
-0.17515635 -0.10778125 0.53371131 4288983743
-0.17305979 -0.10716121 0.53064102 4288983743
-0.17296912 -0.10778325 0.53372127 4289049536
-0.17142959 -0.10716321 0.53065091 4288786364
-0.16890602 -0.1059221 0.5245052 4288260020
-0.16540782 -0.1040599 0.515284 4287931055
-0.16225649 -0.1024047 0.50708777 4288456888
-0.15944892 -0.10095649 0.49991652 4289048770
-0.15680017 -0.099922307 0.49479541 4289640907
-0.15629393 -0.099923238 0.49480003 4289640907
-0.15528001 -0.099924169 0.49480465 4289575116
-0.15426606 -0.099925101 0.49480927 4289640909
-0.15325208 -0.099926025 0.49481386 4289640911
-0.15223809 -0.099926956 0.49481848 4289640911
-0.15122409 -0.099927902 0.4948231 4289640911
-0.15021005 -0.099928834 0.49482772 4289640911
-0.14919601 -0.099929765 0.49483234 4289575118
-0.14868966 -0.099930689 0.49483693 4289640911
-0.14767559 -0.09993162 0.49484155 4289575118
-0.14666149 -0.099932551 0.49484617 4289509582
-0.14564736 -0.09993349 0.49485078 4289509582
-0.14463323 -0.099934421 0.4948554 4289575375
-0.14361908 -0.099935345 0.49485999 4289575375
-0.14260489 -0.099936277 0.49486461 4289575632
-0.14209847 -0.099937208 0.49486923 4289641168
-0.14137655 -0.1001452 0.49589914 4289641168
-0.14007002 -0.099939071 0.49487844 4289706961
-0.13905577 -0.099940002 0.49488306 4289706961
-0.13832751 -0.100148 0.495913 4289706961
-0.13731113 -0.10014893 0.49591765 4289706961
-0.13657653 -0.10035694 0.49694765 4289838290
-0.13555801 -0.10035788 0.49695227 4289838547
-0.13481706 -0.10056587 0.49798226 4290036180
-0.13434739 -0.10098097 0.50003773 4290233559
-0.13441607 -0.10181021 0.50414395 4290299352
-0.13475718 -0.10326071 0.51132655 4290365143
-0.13585533 -0.10533247 0.52158546 4289575627
-0.13636252 -0.10699011 0.5297938 4288851904
-0.13655847 -0.10844071 0.53697687 4289444041
-0.13571647 -0.10864881 0.53800732 4289575627
-0.13542333 -0.1088569 0.53903776 4289575627
-0.1340629 -0.10865083 0.53801733 4289641420
-0.13321349 -0.10885894 0.53904784 4289575628
-0.13235986 -0.10906705 0.54007834 4289707213
-0.13125278 -0.10906806 0.54008335 4289707213
-0.1301457 -0.10906908 0.54008842 4289641422
-0.16222455 -0.10186415 0.50698793 4288391096
-0.15843681 -0.099805787 0.49674326 4289048770
-0.15709409 -0.099600784 0.49572295 4289575114
-0.15626317 -0.099395782 0.49470261 4289640907
-0.15524943 -0.099396706 0.49470723 4289640909
-0.15423568 -0.099397637 0.49471185 4289640909
-0.15353936 -0.099604495 0.49574143 4289640911
-0.15252347 -0.099605426 0.49574605 4289640911
-0.15150756 -0.09960635 0.49575067 4289640911
-0.15018049 -0.09940134 0.49473029 4289575375
-0.14947568 -0.099608205 0.4957599 4289640911
-0.14866038 -0.099403188 0.4947395 4289640911
-0.1476465 -0.099404119 0.49474412 4289575375
-0.14663261 -0.099405043 0.49474874 4289509582
-0.14561871 -0.099405974 0.49475336 4289575375
-0.14460476 -0.099406905 0.49475798 4289640911
-0.14359081 -0.099407829 0.49476257 4289575375
-0.14287223 -0.099614717 0.49579227 4289575632
-0.1420705 -0.099409685 0.49477181 4289575889
-0.14105648 -0.099410616 0.49477643 4289641168
-0.14004245 -0.09941154 0.49478105 4289706961
-0.13902842 -0.099412464 0.49478564 4289706961
-0.1383003 -0.099619359 0.4958154 4289772754
-0.13728411 -0.09962029 0.49582002 4289706961
-0.13654965 -0.0998272 0.49684981 4289904083
-0.13553132 -0.099828131 0.49685445 4289904340
-0.13479052 -0.10003503 0.49788424 4290101719
-0.17764913 -0.10686745 0.53462106 4289049022
-0.17655367 -0.10686845 0.53462607 4288983743
-0.17512184 -0.10666458 0.53360617 4288983743
-0.17357005 -0.10605097 0.53053647 4289049536
-0.17293504 -0.10666657 0.53361613 4288917950
-0.17139581 -0.10605294 0.53054637 4288720571
-0.1685427 -0.10461983 0.523377 4288260020
-0.16537522 -0.1029818 0.5151825 4287996848
-0.13432094 -0.099934772 0.49993926 4290299098
-0.13466296 -0.10096035 0.50506991 4290299352
-0.13500084 -0.10239583 0.51225108 4290365143
-0.13582858 -0.10424118 0.52148277 4289509834
-0.13686346 -0.10629153 0.53173995 4288851903
-0.13708244 -0.10731722 0.53687114 4289180869
-0.13624166 -0.10752316 0.53790134 4289575627
-0.13539666 -0.1077291 0.53893161 4289575629
-0.1340365 -0.10752517 0.53791142 4289641422
-0.13318726 -0.10773112 0.53894168 4289641422
-0.1323338 -0.10793706 0.53997195 4289707215
-0.13122694 -0.10793807 0.53997701 4289707215
-0.13012007 -0.10793907 0.53998202 4289641422
-0.17761409 -0.10629773 0.53451568 4289049021
-0.17651886 -0.10629873 0.53452069 4288983742
-0.17508733 -0.10609595 0.53350103 4288983743
-0.17432836 -0.10630073 0.5345307 4288983743
-0.17290096 -0.10609794 0.53351098 4288917950
-0.17136206 -0.10548759 0.53044188 4288654778
-0.1685095 -0.10406211 0.52327389 4288194228
-0.16534266 -0.10243282 0.51508105 4288062386
-0.1621926 -0.10080349 0.50688803 4288456887
-0.1584056 -0.09876658 0.49664545 4288983230
-0.15706316 -0.098563708 0.49562532 4289509577
-0.15655608 -0.098564625 0.49562994 4289706700
-0.15554044 -0.098565549 0.49563456 4289575117
-0.1545248 -0.098566465 0.49563918 4289640655
-0.15350913 -0.098567382 0.49564379 4289640656
-0.15249342 -0.098568305 0.49564841 4289640911
-0.15147772 -0.098569222 0.49565303 4289640909
-0.15015091 -0.098366342 0.49463287 4289575375
-0.14944625 -0.098571062 0.4956623 4289575118
-0.14863113 -0.098368183 0.49464211 4289575118
-0.14761743 -0.098369099 0.4946467 4289640911
-0.14660373 -0.098370016 0.49465132 4289640911
-0.14559002 -0.098370932 0.49465594 4289575375
-0.14457628 -0.098371856 0.49466056 4289575118
-0.14356253 -0.098372772 0.49466518 4289640911
-0.14254875 -0.098373681 0.49466977 4289575632
-0.14204252 -0.098374605 0.49467438 4289510352
-0.1410287 -0.098375522 0.494679 4289706961
-0.14001489 -0.098376438 0.49468362 4289706961
-0.13928902 -0.098581173 0.49571314 4289641938
-0.13827306 -0.098582096 0.49571776 4289706961
-0.13725707 -0.098583013 0.49572238 4289772754
-0.13652277 -0.098787777 0.49675199 4289838290
-0.13550465 -0.098788686 0.49675661 4290035926
-0.13504146 -0.099197276 0.49881119 4290101719
-0.13456988 -0.099605873 0.50086582 4290234073
-0.13490973 -0.10062599 0.50599545 4290168280
-0.13524437 -0.10205381 0.51317519 4290430936
-0.13633582 -0.10409319 0.52343017 4289313225
-0.1368365 -0.10572491 0.53163522 4288786110
-0.13676535 -0.10639695 0.53779036 4289312971
-0.13621481 -0.10639794 0.53779536 4289444557
-0.13511248 -0.10639894 0.53780043 4289444557
-0.13401011 -0.10639994 0.53780544 4289510350
-0.13316104 -0.10660373 0.53883553 4289510350
-0.1320565 -0.10660472 0.53884053 4289510350
-0.13120109 -0.10680851 0.53987062 4289510350
-0.13009444 -0.10680951 0.53987569 4289510350
-0.1775791 -0.1051797 0.53441036 4289049021
-0.17648409 -0.1051807 0.53441536 4289049022
-0.17505284 -0.10498004 0.53339589 4289049279
-0.17429398 -0.10518266 0.53442532 4288983743
-0.17286688 -0.104982 0.53340584 4288852157
-0.17099732 -0.10417645 0.52931285 4288588985
-0.16847628 -0.1029676 0.52317077 4288193972
-0.16037852 -0.098331779 0.49961653 4288128180
-0.15870117 -0.097929411 0.49757212 4288983228
-0.1573569 -0.097728685 0.49655226 4289443783
-0.15684889 -0.097729594 0.49655688 4289640908
-0.15550981 -0.097528853 0.49553692 4289575118
-0.15449435 -0.097529761 0.49554154 4289640657
-0.15347889 -0.097530678 0.49554619 4289640657
-0.15246339 -0.097531587 0.49555081 4289575118
-0.15144789 -0.097532496 0.49555543 4289575116
-0.15043236 -0.097533405 0.49556005 4289509325
-0.14992529 -0.097534314 0.49556467 4289509325
-0.14890972 -0.097535223 0.49556929 4289575118
-0.14758837 -0.097334474 0.4945493 4289575118
-0.14657487 -0.097335383 0.49455389 4289575118
-0.14556135 -0.097336292 0.49455851 4289509325
-0.14454781 -0.097337201 0.49456313 4289575118
-0.14353426 -0.09733811 0.49456775 4289640911
-0.14281595 -0.097540684 0.49559703 4289641168
-0.14230877 -0.097541593 0.49560165 4289641168
-0.14129306 -0.097542502 0.49560627 4289641168
-0.14027734 -0.097543411 0.49561089 4289706961
-0.13926159 -0.097544327 0.49561551 4289772754
-0.13824582 -0.097545236 0.49562013 4289838547
-0.13751379 -0.097747833 0.49664953 4289772754
-0.13649587 -0.097748742 0.49665415 4289838290
-0.13575748 -0.097951338 0.49768353 4289970133
-0.13501486 -0.098153941 0.49871293 4290102489
-0.1348187 -0.098759934 0.50179195 4290168280
-0.13488317 -0.099567629 0.50589579 4290168280
-0.13548782 -0.10118213 0.51409894 4290496729
-0.13630895 -0.10299835 0.52332705 4289312968
-0.13707331 -0.1048146 0.53255528 4288851903
-0.13729009 -0.10582408 0.53768438 4289180871
-0.13489011 -0.10481656 0.53256524 4289509836
-0.13508585 -0.10582606 0.53769445 4289575629
-0.13423906 -0.10602876 0.5387243 4289641422
-0.13313478 -0.10602974 0.53872931 4289641422
-0.13228166 -0.10623244 0.53975922 4289641422
-0.13117525 -0.10623344 0.53976429 4289641422
-0.13006879 -0.10623442 0.53976929 4289641422
-0.17754409 -0.1040621 0.53430498 4289049022
-0.17644928 -0.10406308 0.53430998 4289049022
-0.17535447 -0.10406405 0.53431499 4289049279
-0.17425963 -0.10406502 0.53432 4288917951
-0.17338 -0.1038665 0.5333007 4288851902
-0.1709636 -0.1030695 0.52920848 4288522937
-0.16844308 -0.1018735 0.52306765 4288193972
-0.1603469 -0.097286955 0.4995181 4288128180
-0.1586699 -0.096888863 0.4974741 4288983228
-0.15732591 -0.096690267 0.49645442 4289312196
-0.15681797 -0.096691169 0.49645904 4289509321
-0.15547918 -0.096492566 0.49543932 4289575118
-0.15478328 -0.096692972 0.49646831 4289574864
-0.15344864 -0.096494369 0.49544856 4289575119
-0.15243337 -0.096495271 0.49545318 4289575117
-0.15141806 -0.096496157 0.4954578 4289509323
-0.15040272 -0.096497059 0.49546242 4289509325
-0.14989574 -0.09649796 0.49546704 4289509325
-0.14857258 -0.09629935 0.49444726 4289509325
-0.1475593 -0.096300252 0.49445188 4289509325
-0.14654599 -0.096301138 0.49445647 4289509325
-0.14553267 -0.09630204 0.49446109 4289509325
-0.14451933 -0.096302941 0.49446571 4289509325
-0.14350598 -0.096303843 0.49447033 4289640911
-0.14278781 -0.096504264 0.4954994 4289706704
-0.14198656 -0.096305639 0.49447954 4289641168
-0.14126523 -0.096506067 0.49550864 4289706961
-0.1402497 -0.096506968 0.49551326 4289706961
-0.13923416 -0.09650787 0.49551788 4289772754
-0.1382186 -0.096508771 0.49552253 4289838290
-0.13748668 -0.096709214 0.49655169 4289772754
-0.13646899 -0.096710123 0.49655634 4289904083
-0.13601021 -0.097110108 0.49861005 4290035669
-0.13526566 -0.097310558 0.4996393 4290036696
-0.13479215 -0.097710565 0.50169313 4290299866
-0.13460974 -0.098709226 0.50682074 4290365145
-0.13573115 -0.10030656 0.51502222 4290496729
-0.13654895 -0.10210349 0.52424848 4289377735
-0.13731003 -0.10390045 0.53347498 4288983232
-0.13726304 -0.10469965 0.53757846 4289115592
-0.13512304 -0.10390239 0.53348494 4289444557
-0.13505924 -0.1047016 0.53758848 4289444557
-0.13421261 -0.10490214 0.53861815 4289510350
-0.13310856 -0.10490312 0.53862315 4289444557
-0.13200448 -0.10490411 0.53862822 4289444557
-0.1311494 -0.10510465 0.53965789 4289444557
-0.13004318 -0.10510563 0.53966296 4289444557
-0.17750908 -0.10294494 0.53419966 4289049023
-0.1764145 -0.10294591 0.53420466 4289049023
-0.17531988 -0.10294686 0.53420961 4289049279
-0.17422526 -0.10294782 0.53421462 4288852159
-0.17334582 -0.10275144 0.53319556 4288786110
-0.17092991 -0.101963 0.52910417 4288522938
-0.16280499 -0.097425759 0.50555962 4288193973
-0.1603153 -0.096242532 0.49941966 4288259766
-0.15863864 -0.095848724 0.49737608 4288917435
-0.15780419 -0.095652252 0.49635661 4289049023
-0.15678707 -0.095653147 0.49636123 4289509320
-0.15544854 -0.095456675 0.49534169 4289575118
-0.15475281 -0.095654935 0.49637049 4289640657
-0.15341841 -0.095458448 0.49535093 4289575118
-0.15240332 -0.095459342 0.49535555 4289575116
-0.15138821 -0.095460236 0.49536017 4289509323
-0.15088135 -0.095461123 0.49536479 4289509323
-0.14986621 -0.095462024 0.49536943 4289509325
-0.14885105 -0.095462903 0.49537405 4289509325
-0.14753023 -0.095266424 0.49435446 4289509325
-0.14651713 -0.095267318 0.49435908 4289509325
-0.145504 -0.095268205 0.49436367 4289575118
-0.14449087 -0.095269084 0.49436828 4289509325
-0.14398496 -0.095269978 0.4943729 4289575118
-0.143268 -0.095468245 0.49540177 4289706704
-0.14195859 -0.095271759 0.49438211 4289772497
-0.14123741 -0.095470041 0.49541104 4289706961
-0.14022207 -0.095470928 0.49541566 4289772754
-0.13920674 -0.095471822 0.49542028 4289838290
-0.13819136 -0.095472708 0.4954249 4289772497
-0.13745962 -0.095671006 0.49645388 4289772754
-0.13644211 -0.095671892 0.4964585 4289838290
-0.13598342 -0.096067585 0.49851182 4290035669
-0.13523902 -0.096265897 0.49954087 4290167512
-0.1350408 -0.096859001 0.50261861 4290430938
-0.1348553 -0.097846948 0.50774527 4290299352
-0.1357044 -0.099229723 0.51492071 4290431193
-0.13678886 -0.10120476 0.52516955 4289246149
-0.13728295 -0.10278502 0.53336978 4288917952
-0.13463598 -0.10120666 0.52517939 4289115333
-0.1350964 -0.10278694 0.53337973 4289575629
-0.13503261 -0.10357758 0.5374825 4289575629
-0.13418616 -0.10377597 0.53851199 4289641422
-0.13308232 -0.10377693 0.538517 4289641422
-0.13222952 -0.10397533 0.53954649 4289641422
-0.13112353 -0.10397629 0.5395515 4289641422
-0.13001753 -0.10397726 0.53955656 4289641422
-0.17747407 -0.1018282 0.53409427 4289049022
-0.17671783 -0.10202437 0.53512317 4289049022
-0.17528531 -0.10183011 0.53410429 4289049023
-0.17419089 -0.10183106 0.53410923 4288917695
-0.17331165 -0.10163681 0.53309041 4288786110
-0.17089619 -0.10085692 0.52899981 4288391352
-0.16244318 -0.096173689 0.50443608 4288259509
-0.16028371 -0.09519852 0.49932122 4288391095
-0.15828079 -0.094613761 0.49625415 4288983228
-0.15777309 -0.09461464 0.49625877 4289049022
-0.15643275 -0.094420299 0.49523944 4289377735
-0.15573925 -0.094616406 0.49626803 4289640910
-0.15440306 -0.094422065 0.49524868 4289640657
-0.15338819 -0.094422944 0.49525329 4289640657
-0.1523733 -0.094423823 0.49525794 4289575118
-0.15135838 -0.09442471 0.49526256 4289575116
-0.15085162 -0.094425589 0.49526718 4289575116
-0.14983669 -0.094426475 0.4952718 4289509325
-0.14882171 -0.094427347 0.49527642 4289443789
-0.14780673 -0.094428234 0.49528104 4289377996
-0.14679174 -0.094429113 0.49528566 4289443532
-0.1447617 -0.094430871 0.4952949 4289509582
-0.14374664 -0.094431758 0.49529955 4289575375
-0.14323977 -0.094432645 0.49530417 4289575375
-0.14222468 -0.094433524 0.49530879 4289838290
-0.14120957 -0.094434403 0.49531341 4289772497
-0.14019445 -0.094435282 0.49531803 4289772497
-0.1391793 -0.094436161 0.49532264 4289772497
-0.13816413 -0.094437048 0.49532726 4289838290
-0.13743252 -0.094633184 0.49635604 4289772497
-0.13669668 -0.094829328 0.49738482 4289838290
-0.13595663 -0.095025465 0.49841359 4289904083
-0.13521238 -0.095221624 0.49944243 4290233305
-0.13501421 -0.095808305 0.50251961 4290365145
-0.13510074 -0.096980795 0.50866938 4290233559
-0.13594757 -0.098348573 0.51584345 4290365143
-0.13702869 -0.1003022 0.52609032 4289115076
-0.13751949 -0.10186529 0.53428882 4288983489
-0.13434687 -0.099913523 0.52405167 4289180612
-0.13506977 -0.10167193 0.53327459 4289640909
-0.13500598 -0.10245399 0.53737658 4289706702
-0.1341597 -0.10265023 0.53840584 4289706702
-0.13305609 -0.10265118 0.53841084 4289640909
-0.13220344 -0.10284741 0.5394401 4289640909
-0.13109769 -0.10284838 0.53944516 4289706702
-0.1299919 -0.10284933 0.53945017 4289706702
-0.16557276 -0.097189128 0.51252139 4288391095
-0.16241114 -0.095637053 0.5043366 4288259509
-0.16025211 -0.09466733 0.49922279 4288391095
-0.15875867 -0.094085835 0.49615631 4288720057
-0.15774198 -0.094086707 0.49616092 4289049022
-0.1564019 -0.093893453 0.4951418 4289377734
-0.15570854 -0.094088465 0.49617019 4289706703
-0.1546918 -0.094089344 0.49617484 4289640657
-0.15335795 -0.093896084 0.49515569 4289640657
-0.15234326 -0.093896963 0.49516031 4289575118
-0.1518366 -0.093897842 0.49516493 4289575118
-0.15082189 -0.093898714 0.49516955 4289575116
-0.14879239 -0.093900464 0.49517879 4289443789
-0.1477776 -0.093901344 0.49518341 4289377996
-0.1467628 -0.093902215 0.49518803 4289377996
-0.14574799 -0.093903095 0.49519268 4289443789
-0.14473316 -0.093903974 0.4951973 4289509582
-0.1442264 -0.093904853 0.49520192 4289575375
-0.14321154 -0.093905725 0.49520653 4289641168
-0.14219666 -0.093906604 0.49521115 4289772497
-0.14118174 -0.093907483 0.49521577 4289706704
-0.1401668 -0.093908355 0.49522039 4289772497
-0.13915186 -0.093909226 0.49522501 4289772497
-0.13813689 -0.093910106 0.49522963 4289838290
-0.13740544 -0.094105162 0.49625823 4289772497
-0.13666974 -0.094300196 0.49728677 4289838290
-0.13592984 -0.094495252 0.49831536 4289904083
-0.1351857 -0.094690308 0.49934399 4290233305
-0.13498759 -0.095273711 0.50242054 4290364891
-0.13507411 -0.096439667 0.50856912 4290233559
-0.17743908 -0.1007119 0.53398895 4289049021
-0.17634492 -0.10071285 0.53399396 4289049022
-0.17525072 -0.10071378 0.53399891 4288983230
-0.17436956 -0.10052166 0.53298026 4288917437
-0.17294465 -0.10032953 0.53196156 4288785853
-0.17053181 -0.099558197 0.52787185 4288325302
-0.1356509 -0.097077303 0.51471776 4290299352
-0.13673495 -0.099009499 0.52496254 4289049284
-0.13354088 -0.097079106 0.51472735 4288325304
-0.13458289 -0.099011347 0.52497232 4289246406
-0.13504314 -0.10055735 0.53316945 4289640909
-0.13497937 -0.10133084 0.53727061 4289706702
-0.13413325 -0.1015249 0.53829962 4289706702
-0.13302985 -0.10152587 0.53830469 4289772495
-0.1321774 -0.10171995 0.53933376 4289772493
-0.13107184 -0.1017209 0.53933877 4289706700
-0.12996629 -0.10172185 0.53934383 4289640907
-0.17774414 -0.10033601 0.53490704 4289049021
-0.1766481 -0.10033695 0.53491205 4289049022
-0.17521617 -0.10014591 0.53389359 4288983230
-0.17433517 -0.099954866 0.53287512 4288917437
-0.17291053 -0.099763826 0.53185666 4288720060
-0.16520946 -0.095926046 0.51139683 4288325302
-0.16237912 -0.094583064 0.50423717 4288193716
-0.1602205 -0.093624018 0.49912435 4288391095
-0.15872738 -0.09304893 0.49605846 4288720057
-0.15771089 -0.093049802 0.49606311 4289049022
-0.15669437 -0.093050674 0.49606773 4289377735
-0.15567784 -0.093051538 0.49607238 4289640911
-0.15434219 -0.092860416 0.49505344 4289706450
-0.15364473 -0.093053281 0.49608165 4289706704
-0.15231322 -0.092862144 0.49506268 4289640911
-0.15180667 -0.092863008 0.4950673 4289640911
-0.15079215 -0.092863873 0.49507192 4289640909
-0.14977762 -0.092864744 0.49507654 4289575375
-0.14876306 -0.092865616 0.49508119 4289575375
-0.14774849 -0.09286648 0.49508581 4289575375
-0.14673388 -0.092867345 0.49509043 4289509582
-0.14470463 -0.092869081 0.49509966 4289641168
-0.14318331 -0.092870817 0.4951089 4289772754
-0.14216861 -0.092871681 0.49511352 4289772754
-0.14115392 -0.092872545 0.49511814 4289772754
-0.14013918 -0.092873424 0.49512279 4289838547
-0.13941209 -0.093066312 0.49615112 4289838547
-0.13839523 -0.093067177 0.49615577 4289772754
-0.13737835 -0.093068048 0.49616039 4289772754
-0.1366428 -0.093260944 0.49718875 4289772754
-0.13590303 -0.093453839 0.49821711 4289838547
-0.13515906 -0.09364675 0.49924555 4290102489
-0.13496098 -0.094223723 0.50232148 4290234075
-0.13504748 -0.095376827 0.50846887 4290233559
-0.13589397 -0.09672197 0.51564002 4290299352
-0.13697465 -0.098643281 0.52588284 4289114819
-0.13378018 -0.09672378 0.51564968 4288390840
-0.13481884 -0.098645128 0.52589267 4289246151
-0.13527584 -0.1001824 0.53408813 4289706702
-0.13495274 -0.10075948 0.53716463 4289706702
-0.13410679 -0.10095247 0.53819346 4289706702
-0.13300361 -0.10095342 0.53819853 4289772495
-0.13215131 -0.1011464 0.53922737 4289772493
-0.131046 -0.10114735 0.53923243 4289706700
-0.12994063 -0.10114829 0.53923744 4289706700
-0.17770907 -0.099218331 0.53480148 4289049021
-0.17661326 -0.099219255 0.53480649 4289049022
-0.17518158 -0.099030338 0.5337882 4288983230
-0.17430076 -0.098841429 0.53276998 4288917437
-0.17287642 -0.098652512 0.53175169 4288654267
-0.16835293 -0.096375339 0.51947737 4288456888
-0.16517687 -0.094857499 0.51129597 4288325302
-0.16234709 -0.093529463 0.50413769 4288193716
-0.16018891 -0.092581108 0.49902591 4288522681
-0.15869609 -0.092012435 0.49596065 4288851643
-0.15767978 -0.092013292 0.49596527 4289114815
-0.15666346 -0.092014149 0.49596992 4289443527
-0.15564714 -0.092015013 0.49597454 4289706704
-0.15431175 -0.091826007 0.49495581 4289706704
-0.15361443 -0.092016727 0.49598381 4289772497
-0.15279104 -0.09182772 0.49496505 4289772497
-0.15177675 -0.091828585 0.4949697 4289838288
-0.15076242 -0.091829449 0.49497432 4289904081
-0.14974809 -0.091830298 0.49497893 4289904083
-0.14873372 -0.091831163 0.49498355 4289904083
-0.14771934 -0.091832012 0.49498817 4289969876
-0.14670494 -0.091832869 0.49499279 4289969876
-0.14569052 -0.091833733 0.49499741 4290035669
-0.145184 -0.091834582 0.49500203 4290035669
-0.14416954 -0.091835447 0.49500665 4290101462
-0.14315507 -0.091836303 0.4950113 4290035926
-0.14214058 -0.09183716 0.49501592 4290101719
-0.14112608 -0.091838025 0.49502054 4290167512
-0.14011155 -0.091838874 0.49502516 4290101719
-0.13938461 -0.092029624 0.49605331 4290167512
-0.13836795 -0.092030481 0.49605793 4290101719
-0.13735126 -0.092031337 0.49606255 4289970133
-0.13661586 -0.092222087 0.49709073 4289904340
-0.13587622 -0.092412837 0.49811888 4289904340
-0.13513242 -0.092603602 0.49914712 4290167767
-0.13493437 -0.093174137 0.50222242 4290365145
-0.13554245 -0.094314396 0.50836855 4290233559
-0.13613693 -0.095834471 0.51656199 4290299350
-0.1334585 -0.094316162 0.50837809 4290101972
-0.13401937 -0.095836252 0.51657164 4288456633
-0.13479225 -0.097546287 0.52578896 4289246149
-0.13524915 -0.099066429 0.53398275 4289706702
