# .PCD v0.7 - Point Cloud Data file format
VERSION 0.7
FIELDS x y z rgb
SIZE 4 4 4 4
TYPE F F F U
COUNT 1 1 1 1
WIDTH 1030
HEIGHT 1
VIEWPOINT 0 0 0 1 0 0 0
POINTS 1030
DATA ascii
0.021113519 0.040459145 0.85215902 4294046191
0.022862457 0.040459532 0.85216719 4293980139
0.023764919 0.040507421 0.85317582 4293980139
0.025515972 0.040507808 0.85318398 4293980139
0.027299032 0.040555697 0.85419267 4293914346
0.029052204 0.040556092 0.8542009 4293848553
0.03084149 0.04060398 0.85520959 4294045162
0.032596782 0.040604372 0.85521781 4293783019
0.034352109 0.040604759 0.85522598 4293783019
0.036149714 0.040652655 0.85623479 4293716969
0.037907161 0.040653046 0.85624301 4293585383
0.039664641 0.040653437 0.85625124 4293651174
0.041422155 0.040653825 0.85625941 4293585381
0.043230161 0.040701721 0.85726821 4293585381
0.044989798 0.040702112 0.85727644 4293519588
0.046804033 0.040750008 0.85828525 4293585381
0.048622407 0.040797908 0.85929412 4293585381
-0.0059895073 0.041319132 0.85185587 4288913826
-0.0042364709 0.041271016 0.85086393 4291677386
-0.0024875049 0.0412229 0.84987187 4294374899
-0.0007434857 0.041223295 0.84988004 4294506483
0.00012838587 0.041175179 0.84888804 4294506483
0.0018726148 0.041224085 0.84989631 4294309104
0.0036124701 0.041175965 0.84890431 4294243311
0.0053545618 0.041176364 0.84891242 4294243311
0.0070966873 0.041176759 0.84892058 4294177518
0.0088492604 0.041225668 0.84992892 4294177518
0.010593506 0.041226063 0.84993708 4294045932
0.012352304 0.041274972 0.85094547 4294111725
0.014098668 0.041275371 0.85095364 4294111725
0.015863691 0.04132428 0.85196203 4294111725
0.017612174 0.041324675 0.8519702 4294111725
0.019360693 0.041325074 0.85197836 4294111727
0.021109244 0.041325472 0.85198653 4294111727
0.02285783 0.041325867 0.85199469 4293980139
0.023732247 0.041326262 0.85200286 4293980139
0.025510807 0.041375175 0.85301131 4293979624
0.027293507 0.041424096 0.85401982 4293979624
0.029046323 0.041424491 0.85402799 4293979624
0.030835247 0.041473407 0.8550365 4293913576
0.032590184 0.041473806 0.85504472 4293717226
0.034345157 0.041474205 0.85505289 4293782762
0.041413773 0.041524317 0.85608613 4293519588
0.043170966 0.041524719 0.85609436 4293453795
-0.1073174 0.042169243 0.85136586 4289177000
-0.10569528 0.042219155 0.8523736 4289111207
-0.10382522 0.042170048 0.8513822 4289111207
-0.10219891 0.042219963 0.85238993 4289177000
-0.10045069 0.042220369 0.8523981 4289177000
-0.098702423 0.042220775 0.85240632 4289242791
-0.09695413 0.042221181 0.85241449 4289374377
-0.095317431 0.042271093 0.85342222 4289505963
-0.093567021 0.042271502 0.85343045 4289505965
-0.091816574 0.042271908 0.85343862 4289177000
-0.09006609 0.042272311 0.85344678 4289045414
-0.088315584 0.04227272 0.85345501 4289045414
-0.086565025 0.042273123 0.85346317 4289111207
-0.085690148 0.042273529 0.85347134 4289111207
-0.083841227 0.042224422 0.85247988 4289111207
-0.082092635 0.042224824 0.85248804 4289308586
-0.080438226 0.042274743 0.8534959 4289505965
-0.078687526 0.042275149 0.85350412 4289440172
-0.076936781 0.042275559 0.85351229 4289308586
-0.075185999 0.042275961 0.85352045 4289177000
-0.073349178 0.042226847 0.85252893 4289111207
-0.071600385 0.042227253 0.8525371 4289045414
-0.069851562 0.042227659 0.85254526 4288979621
-0.068102702 0.042228065 0.85255349 4289111207
-0.066353813 0.042228468 0.85256165 4289243049
-0.064604878 0.042228874 0.85256982 4289243306
-0.063730709 0.04222928 0.85257798 4289177513
-0.061981723 0.042229682 0.85258615 4289243306
-0.06023271 0.042230092 0.85259438 4289309099
-0.058552239 0.042280018 0.85360235 4289177513
-0.056801099 0.042280421 0.85361052 4289045925
-0.05504993 0.042280827 0.85361874 4289045412
-0.053361151 0.042330757 0.85462672 4288979619
-0.051607866 0.042331163 0.85463494 4288914339
-0.04991287 0.042381093 0.85564303 4288848546
-0.048157465 0.042381503 0.85565126 4288782753
-0.046347797 0.042332381 0.8546595 4288782753
-0.044698719 0.042431843 0.85666758 4288782753
-0.042941161 0.042432252 0.8566758 4288782240
-0.041183565 0.042432655 0.85668397 4288782240
-0.039471954 0.042482588 0.85769212 4288848033
-0.037712239 0.042482998 0.85770035 4288782242
-0.036832552 0.042483404 0.85770857 4288782242
-0.035113666 0.042533342 0.85871679 4288848035
-0.033351813 0.042533752 0.85872501 4288848035
-0.031589918 0.042534158 0.85873324 4288913826
-0.02986273 0.042584095 0.85974151 4288913826
-0.028098721 0.042584505 0.85974973 4288848033
-0.026334673 0.042584911 0.85975796 4288782240
-0.024570599 0.042585321 0.85976624 4288782240
-0.022806486 0.042585731 0.85977447 4288782240
-0.02104234 0.042586137 0.8597827 4288848033
-0.019278159 0.042586546 0.85979098 4288848033
-0.017513948 0.042586956 0.85979921 4288782753
-0.015749699 0.042587362 0.85980743 4288782753
-0.013985419 0.042587772 0.85981572 4288848546
-0.013103328 0.042588182 0.85982394 4288848546
-0.011338987 0.042588588 0.85983217 4288848546
-0.00955234 0.042489924 0.85784018 4288848035
-0.0077647837 0.042341717 0.85484803 4288782240
0.036142398 0.042401824 0.85606152 4293651174
0.03789949 0.04240223 0.85606974 4293585381
0.039656613 0.042402633 0.85607791 4293519588
0.04498069 0.042453408 0.85710293 4293518818
0.046740007 0.042453814 0.85711116 4293388002
0.048555959 0.042503774 0.85811979 4293388002
-0.10729568 0.043034401 0.85119343 4289111207
-0.10554995 0.043034811 0.85120159 4289111207
-0.10380419 0.043035224 0.85120976 4289111207
-0.10217821 0.04308616 0.85221726 4289111207
-0.10043033 0.043086577 0.85222542 4289176998
-0.098682426 0.043086991 0.85223365 4289176998
-0.096934482 0.0430874 0.85224181 4289374377
-0.095186502 0.043087818 0.85224998 4289308584
-0.093438499 0.043088228 0.85225815 4289637550
-0.091690451 0.043088645 0.85226631 4289374379
-0.090047851 0.043139584 0.85327393 4289045413
-0.088297687 0.043139998 0.85328209 4288782242
-0.087320618 0.043089885 0.85229087 4288716447
-0.085572444 0.043090295 0.85229903 4288519068
-0.083725944 0.043040182 0.85130775 4288453275
-0.081979759 0.043040592 0.85131592 4288848033
-0.080233537 0.043041006 0.85132408 4289177000
-0.078579433 0.043091953 0.85233176 4289242792
-0.076831102 0.043092363 0.85233992 4289242793
-0.074994683 0.043042243 0.85134858 4289308586
-0.073248319 0.043042656 0.85135674 4289308586
-0.071417995 0.042992536 0.8503654 4289374379
-0.06967362 0.042992946 0.85037351 4289243306
-0.067849368 0.042942822 0.84938204 4289309099
-0.066184781 0.042993773 0.85038984 4289637551
-0.065389633 0.04304472 0.85139757 4289571758
-0.063643083 0.043045133 0.85140574 4289374379
-0.061896507 0.043045543 0.85141391 4289243306
-0.060149889 0.04304596 0.85142207 4289309099
-0.058403242 0.04304637 0.85143024 4289309099
-0.056656562 0.043046787 0.8514384 4289111720
-0.054974314 0.043097734 0.8524462 4289111718
-0.053225514 0.043098152 0.85245436 4289111718
-0.051537048 0.043149102 0.85346222 4289177511
-0.049786132 0.04314952 0.85347039 4289045925
-0.048035178 0.043149929 0.85347855 4288980132
-0.046284195 0.043150347 0.85348678 4288848546
-0.04458534 0.043201301 0.85449463 4288914339
-0.04283224 0.043201718 0.85450286 4288848546
-0.041127168 0.043252677 0.85551083 4288848546
-0.039371945 0.04325309 0.855519 4288913826
-0.038494509 0.043253504 0.85552722 4288979621
-0.036739226 0.043253921 0.85553539 4288979621
-0.035024796 0.043304879 0.85654336 4289045414
-0.033306226 0.043355841 0.85755134 4289045412
-0.031546745 0.043356255 0.85755956 4288848033
-0.029821955 0.04340722 0.8585676 4288848033
-0.028060352 0.043407638 0.85857582 4288782240
-0.026298717 0.043408051 0.85858405 4288650654
-0.024565622 0.043459021 0.85959214 4288650654
-0.022801867 0.043459434 0.85960037 4288650654
-0.02103808 0.043459855 0.85960865 4288716447
-0.019274257 0.043460269 0.85961688 4288782240
-0.017490033 0.043410134 0.85862523 4288782240
-0.015728194 0.043410551 0.85863346 4288782240
-0.014830044 0.043360416 0.85764182 4288848033
-0.013024485 0.043209177 0.85465038 4288848033
-0.011310319 0.04336125 0.85765827 4288848546
-0.0095170029 0.043210004 0.85466677 4288979621
-0.0077450466 0.043109309 0.85267514 4288913826
-0.0059812642 0.043008618 0.85068351 4289769135
-0.0042306338 0.042958476 0.84969169 4293322211
-0.0024840746 0.042908333 0.84869987 4294309106
-0.0016132793 0.042908743 0.84870803 4294440690
0.00012835985 0.042909153 0.84871614 4294374897
0.0018700325 0.042909566 0.84872431 4294440690
0.0036117383 0.042909976 0.84873241 4294374897
0.0053534782 0.042910386 0.84874058 4294309104
0.0070952508 0.042910803 0.84874874 4294177518
0.0088474685 0.042961769 0.84975684 4294045932
0.010591361 0.042962182 0.849765 4293980139
0.012349803 0.043013155 0.85077322 4294045932
0.014095815 0.043013565 0.85078138 4294045932
0.015860479 0.043064538 0.85178959 4294045932
0.017608611 0.043064956 0.85179776 4294177003
0.019356774 0.043065365 0.85180593 4294308589
0.021104973 0.043065779 0.85181409 4294373869
0.022880033 0.043116752 0.8528223 4294242796
0.023755301 0.043117166 0.85283047 4294242796
0.025535552 0.043168142 0.85383874 4294242283
0.027287984 0.043168556 0.85384697 4294176488
0.02907446 0.043219533 0.85485524 4294044902
0.030829009 0.043219946 0.85486346 4294110697
0.032583587 0.04322036 0.85487163 4294045932
0.034338206 0.043220777 0.85487986 4293782760
0.036135081 0.043271758 0.85588825 4293716967
0.03789182 0.043272175 0.85589647 4293651174
0.039694916 0.043323155 0.8569048 4293519588
0.041453775 0.043323569 0.85691303 4293518818
0.043212667 0.043323986 0.85692126 4293453025
0.044971589 0.0433244 0.85692948 4293387232
0.046730544 0.043324817 0.85693771 4293256416
0.048546132 0.043375798 0.8579461 4293322209
-0.10727393 0.044772722 0.85102093 4289111207
-0.10552856 0.044773154 0.8510291 4289177000
-0.10378315 0.044773582 0.85103726 4289111207
-0.10203771 0.044774011 0.85104543 4289045414
-0.10029224 0.044774443 0.8510536 4289045669
-0.098662436 0.044827443 0.85206097 4288914083
-0.096914843 0.044827867 0.85206914 4289176998
-0.095167227 0.044828299 0.85207731 4286479485
-0.093419567 0.044828732 0.85208547 4284637535
-0.091671869 0.04482916 0.85209364 4284374107
-0.089818701 0.044777021 0.85110259 4284636765
-0.088072993 0.044777449 0.85111076 4285031523
-0.087200545 0.044777878 0.85111892 4285294694
-0.085454777 0.04477831 0.85112709 4286478967
-0.083610706 0.044726167 0.85013598 4286741883
-0.081770688 0.04467402 0.84914482 4286807932
-0.080028929 0.044674449 0.84915298 4287136900
-0.078287132 0.044674881 0.84916115 4287136901
-0.076455213 0.044622734 0.84816998 4287071108
-0.07462737 0.044570588 0.84717882 4286939779
-0.072889566 0.044571012 0.84718692 4286808450
-0.071067803 0.044518866 0.8461957 4286742657
-0.070117332 0.044466719 0.84520447 4286742657
-0.068383537 0.044467144 0.84521258 4287137672
-0.066728517 0.044520151 0.84622008 4287203208
-0.064992607 0.044520576 0.84622818 4287136899
-0.063331373 0.044573579 0.84723568 4287465866
-0.061593346 0.044574007 0.84724385 4287860624
-0.059925891 0.044627011 0.84825134 4288190103
-0.058185749 0.044627443 0.84825951 4288387482
-0.056512076 0.044680454 0.84926707 4288584861
-0.054834273 0.044733465 0.85027468 4288651167
-0.053152334 0.044786476 0.8512823 4288914082
-0.051466256 0.044839486 0.85228992 4289111720
-0.049717743 0.044839915 0.85229808 4289111720
-0.0479692 0.044840343 0.85230625 4289111207
-0.046220619 0.044840775 0.85231441 4289045414
-0.044472009 0.044841204 0.85232258 4288979621
-0.042773463 0.044894218 0.85333025 4288979621
-0.041898303 0.044894651 0.85333842 4288979621
-0.04014755 0.044895079 0.85334665 4289111207
-0.038396757 0.044895511 0.85335481 4289177000
-0.036688861 0.044948526 0.85436255 4289308584
-0.034976833 0.045001548 0.85537034 4289242791
-0.033260658 0.045054566 0.85637808 4289374377
-0.031503584 0.045054998 0.8563863 4289242791
-0.029781193 0.04510802 0.8573941 4289176998
-0.028022001 0.045108452 0.85740232 4289111205
-0.026262773 0.045108885 0.85741055 4289111205
-0.02453208 0.04516191 0.85841841 4289111205
-0.022770733 0.045162339 0.85842663 4289111205
-0.021009352 0.045162775 0.85843486 4289111205
-0.019247938 0.045163207 0.85844308 4289045923
-0.017466128 0.045111049 0.85745168 4289045923
-0.015706697 0.045111481 0.8574599 4289045923
-0.014809755 0.045059323 0.85646844 4289111716
-0.013006612 0.044901971 0.8534776 4289177509
-0.011228929 0.044797216 0.85148644 4289243302
-0.0095039429 0.044902831 0.85349399 4289505963
-0.0077343979 0.044798076 0.85150278 4289505963
-0.0059730234 0.044693306 0.84951144 4291282628
-0.0042248 0.044641145 0.84851992 4293782762
-0.0033502539 0.044588972 0.84752828 4294439920
-0.0016110523 0.044589404 0.84753644 4294637299
0.00012818267 0.044589829 0.84754455 4294834933
0.0018696538 0.044642854 0.84855247 4294571761
0.0036110072 0.044643283 0.84856057 4294571761
0.0053523937 0.044643711 0.84856874 4294571761
0.0070938142 0.04464414 0.84857684 4294505968
0.0088456776 0.044697169 0.84958482 4294505968
0.010589216 0.044697594 0.84959292 4294374382
0.012332789 0.044698026 0.84960109 4294440175
0.01409296 0.044751059 0.85060912 4294505968
0.015857268 0.044804089 0.8516171 4294571761
0.017605046 0.044804517 0.85162526 4294571506
0.019352853 0.044804946 0.85163343 4294768627
0.021100698 0.044805378 0.8516416 4294571246
0.0228754 0.044858411 0.85264963 4294111210
0.023750491 0.044858839 0.85265779 4293979624
0.025530383 0.044911876 0.85366589 4293518818
0.027282456 0.044912305 0.85367405 4293452767
0.029034564 0.044912741 0.85368228 4293452767
0.030822765 0.044965774 0.85469037 4293387487
0.032576993 0.044966206 0.85469854 4293782245
0.034331255 0.044966638 0.85470676 4293781990
0.036127765 0.045019682 0.85571498 4293781990
0.037928414 0.045072719 0.85672313 4293716197
0.039686881 0.045073152 0.85673136 4293650404
0.041445386 0.045073587 0.85673958 4293322209
0.043203916 0.045074012 0.85674775 4293190623
0.044962481 0.045074448 0.85675597 4293190623
0.046775617 0.045127492 0.85776418 4293321694
0.048536304 0.045127921 0.85777241 4293321182
-0.1072522 0.046510343 0.8508485 4289177000
-0.10550717 0.04651079 0.85085666 4289177000
-0.10376212 0.046511237 0.85086483 4289177000
-0.10213681 0.046566289 0.85187191 4289177000
-0.10038964 0.046566736 0.85188007 4289243304
-0.098642439 0.046567179 0.8518883 4288980132
-0.097008832 0.046622239 0.85289544 4288651167
-0.095147938 0.046568073 0.85190463 4283453520
-0.093291111 0.046513915 0.85091382 4282861124
-0.091438346 0.046459749 0.84992296 4283058249
-0.090460688 0.04640558 0.84893203 4283584593
-0.088615038 0.046351418 0.84794116 4284966500
-0.086773448 0.046297248 0.84695023 4286150774
-0.085036241 0.046297695 0.8469584 4288913568
-0.083200723 0.046243526 0.84596741 4291545031
-0.081369288 0.046189357 0.84497648 4293321441
-0.079541907 0.046135183 0.84398544 4294110957
-0.077810705 0.046135627 0.84399354 4294637301
-0.075989418 0.046081457 0.84300256 4294637814
-0.074172184 0.046027284 0.84201151 4294703610
-0.073134966 0.045918491 0.84002131 4294637817
-0.071326904 0.045864318 0.83903027 4294308852
-0.069522902 0.045810137 0.83803916 4293979887
-0.067803808 0.04581058 0.83804721 4292927712
-0.066163473 0.045865636 0.83905441 4291677645
-0.064518996 0.045920696 0.8400616 4290756286
-0.06294509 0.046030372 0.84206808 4289769135
-0.061290305 0.046085432 0.84307534 4288782494
-0.059560798 0.046085875 0.84308344 4287664013
-0.057899795 0.046140939 0.84409076 4287006083
-0.056234669 0.04619601 0.84509814 4286545532
-0.05450096 0.046196453 0.84510624 4286084981
-0.052829605 0.046251517 0.84611356 4285887602
-0.051154125 0.04630658 0.84712094 4285624176
-0.049416214 0.046307024 0.84712905 4285426797
-0.047734514 0.046362091 0.84813643 4285361258
-0.046864737 0.046362538 0.84814459 4285361004
-0.045124691 0.046362985 0.84815276 4285426797
-0.043435715 0.046418052 0.84916013 4284966500
-0.041742623 0.046473131 0.85016769 4284768351
-0.039998367 0.04647357 0.8501758 4284505180
-0.03829905 0.046528645 0.8511833 4284374622
-0.036595602 0.046583716 0.85219079 4284308829
-0.034888014 0.046638794 0.85319829 4284374109
-0.033137478 0.046639238 0.85320652 4284505695
-0.031423673 0.046694316 0.85421407 4284769121
-0.029705737 0.046749394 0.85522169 4284703328
-0.027950998 0.046749841 0.85522985 4284637535
-0.026196228 0.046750292 0.85523808 4284834914
-0.024469987 0.046805371 0.8562457 4284966500
-0.022713099 0.046805821 0.85625392 4285295465
-0.020956177 0.046806268 0.85626209 4285624430
-0.01919922 0.046806719 0.85627031 4285756016
-0.017442232 0.04680717 0.85627854 4285953395
-0.016544471 0.046752986 0.85528731 4286084981
-0.014754908 0.046644166 0.85329658 4286150774
-0.012958284 0.046480704 0.85030633 4286216567
-0.011187112 0.046371881 0.84831548 4286282360
-0.00946863 0.046481598 0.85032266 4286413946
-0.0077055944 0.046372768 0.84833175 4287006083
-0.0059577585 0.046318579 0.8473404 4289111457
-0.0042189676 0.046319019 0.84734851 4291281856
-0.0033456243 0.046264827 0.84635711 4291610821
-0.001610726 0.046319909 0.84736478 4291873993
0.00012815671 0.046320356 0.84737289 4292137165
0.0018670729 0.046320803 0.84738106 4292400080
0.0036102759 0.046375882 0.84838873 4292531663
0.0053513097 0.046376329 0.84839684 4292794837
0.0070923776 0.046376776 0.848405 4292926423
0.0088334782 0.046377216 0.84841311 4292992216
0.010587072 0.046432305 0.84942091 4293123802
0.012330291 0.046432748 0.84942901 4293189595
0.014090107 0.046487845 0.85043687 4293518560
0.015835444 0.046488289 0.85044503 4293913318
0.017580815 0.046488732 0.85045314 4293979111
0.019348936 0.046543825 0.85146099 4294176490
0.021096425 0.046544272 0.85146916 4293255388
0.022843949 0.046544716 0.85147732 4292136907
0.02374568 0.046599805 0.85248512 4292005321
0.025525212 0.046654902 0.85349303 4291939012
0.027276931 0.046655346 0.8535012 4291807426
0.029028684 0.046655793 0.85350937 4291281082
0.030816525 0.04671089 0.85451728 4291149496
0.032570396 0.046711341 0.85452551 4292662481
0.034364462 0.046766441 0.85553348 4293781732
0.036162656 0.046821535 0.8565414 4293979112
0.037964996 0.046876635 0.85754937 4293979111
0.039725158 0.046877086 0.85755759 4293452768
0.041485354 0.046877537 0.85756582 4293387234
0.043245584 0.046877988 0.85757405 4293387234
0.045005847 0.046878431 0.85758227 4293386975
0.046766143 0.046878882 0.8575905 4293321182
0.048526473 0.046879333 0.85759872 4293255389
-0.10723045 0.048247252 0.850676 4289242793
-0.10548579 0.048247714 0.85068417 4289242793
-0.10374109 0.048248179 0.85069233 4289242793
-0.1021161 0.048305288 0.85169923 4289242793
-0.1003693 0.048305754 0.85170746 4289309097
-0.098622449 0.048306216 0.85171562 4289177511
-0.096989162 0.048363328 0.85272259 4288651167
-0.095128655 0.048307143 0.85173196 4282466625
-0.093053184 0.048137657 0.84874368 4282203453
-0.092074722 0.048081469 0.84775299 4282597954
-0.090016626 0.047911983 0.84476471 4283848021
-0.088075154 0.04779914 0.84277511 4285295209
-0.086039506 0.047629643 0.83978659 4286281590
-0.084116414 0.047516797 0.83779699 4288650138
-0.082201473 0.04740395 0.83580726 4291216065
-0.081150249 0.0472911 0.83381754 4292202959
-0.079154432 0.047121596 0.83082891 4294044905
-0.077357106 0.047065388 0.82983792 4294703094
-0.075563855 0.047009189 0.82884699 4294900473
-0.073774658 0.046952985 0.827856 4294900473
-0.071989536 0.046896782 0.82686508 4294835450
-0.070123546 0.046783917 0.82487506 4294769657
-0.069193952 0.046727709 0.82388407 4294835450
-0.067503907 0.04672816 0.823892 4294835450
-0.066053227 0.046898577 0.82689679 4294835451
-0.064512461 0.047012344 0.82890266 4294966782
-0.062185589 0.047182776 0.83190763 4294966268
-0.061406247 0.047239888 0.83291459 4294966525
-0.058984116 0.047353655 0.83492053 4294900989
-0.058197554 0.047410775 0.83592761 4294835196
-0.05655019 0.047467887 0.83693463 4294900989
-0.05489869 0.047525011 0.83794171 4294769405
-0.05324306 0.047582127 0.83894879 4294769405
-0.051583298 0.047639243 0.83995587 4294506232
-0.049860097 0.047639702 0.83996391 4294440438
-0.048194122 0.047696825 0.84097111 4294111473
-0.046524007 0.047753945 0.84197825 4293453543
-0.044849765 0.047811069 0.84298539 4292663511
-0.043171391 0.047868192 0.84399259 4291939788
-0.041439828 0.04786865 0.8440007 4291084479
-0.039755236 0.047925778 0.84500796 4290229170
-0.038066514 0.047982905 0.84601521 4289702826
-0.036416564 0.048096702 0.84802157 4289373861
-0.034758378 0.048210502 0.85002804 4288781724
-0.033053156 0.048267629 0.85103536 4288321173
-0.031343795 0.048324764 0.85204268 4288123794
-0.029630303 0.048381895 0.85304999 4287532427
-0.027880022 0.048382357 0.85305816 4286940290
-0.026099103 0.048326153 0.85206717 4286413944
-0.02437936 0.048383288 0.85307455 4286084211
-0.022655483 0.048440423 0.85408193 4286018418
-0.020903019 0.048440889 0.85409015 4285886832
-0.01915052 0.04844135 0.85409832 4285689453
-0.018274346 0.04844182 0.85410655 4285623660
-0.016521789 0.048442282 0.85411471 4285623660
-0.014734639 0.048329398 0.85212439 4285492074
-0.012925201 0.048103161 0.84813547 4285557867
-0.011171668 0.04804695 0.84714437 4285492076
-0.0094333282 0.048047408 0.84715247 4285229672
-0.0076949568 0.048047874 0.84716064 4285163879
-0.0059565515 0.048048332 0.84716874 4286347381
-0.0042131376 0.047992118 0.84617758 4287465861
-0.0033449465 0.04799258 0.84618568 4287202945
-0.0016103998 0.048049714 0.84719312 4287137152
0.00012813075 0.048050176 0.84720123 4287334018
0.0018666945 0.048050638 0.84720939 4287268225
0.0036095448 0.048107777 0.84821689 4287399809
0.0053502261 0.048108239 0.848225 4287334016
0.0070909411 0.048108701 0.84823316 4287399809
0.0088316891 0.048109159 0.84824127 4287334270
0.010584927 0.048166309 0.84924883 4287334270
0.012327792 0.048166767 0.84925693 4287531649
0.014087252 0.048223916 0.85026461 4287597442
0.015832236 0.048224378 0.85027272 4287729028
0.017577253 0.04822484 0.85028088 4287860360
0.019322304 0.048225302 0.85028905 4287597442
0.021092152 0.048282452 0.85129666 4286873719
0.022839321 0.048282918 0.85130483 4286084203
0.02461539 0.048340067 0.85231251 4286083433
0.025520042 0.048397217 0.85332012 4286215019
0.027271407 0.048397683 0.85332835 4286017897
0.029022805 0.048398145 0.85333651 4285557089
0.030810282 0.048455294 0.85434419 4284899159
0.032563798 0.048455764 0.85435241 4285951334
0.034357499 0.048512921 0.85536021 4288780946
0.036155336 0.048570078 0.85636795 4292728528
0.037913058 0.048570544 0.85637617 4294504939
0.039670806 0.048571009 0.85638434 4293321181
0.04147695 0.048628163 0.85739213 4293584353
0.043236826 0.048628632 0.85740036 4293189853
0.044996735 0.048629098 0.85740858 4293189853
0.046756674 0.048629567 0.85741681 4293189596
0.048516646 0.048630033 0.85742503 4293189596
-0.1072087 0.049983449 0.8505035 4289111207
-0.10534059 0.049925249 0.84951317 4289177000
-0.10372006 0.04998441 0.8505199 4289242793
-0.1020954 0.050043575 0.85152656 4289242793
-0.10034895 0.050044056 0.85153478 4289243304
-0.09883371 0.050161909 0.85354006 4289177511
-0.097083084 0.05016239 0.85354829 4288387995
-0.095109366 0.050045498 0.85155928 4282664004
-0.09368398 0.049752541 0.84657443 4282071354
-0.091513768 0.049518265 0.84258807 4282532160
-0.089253485 0.049225297 0.83760303 4283650640
-0.086909302 0.048873637 0.83161926 4285360488
-0.085540138 0.048580658 0.82663399 4286018418
-0.083439432 0.048346359 0.82264727 4287005313
-0.081355087 0.048112061 0.8186605 4289176482
-0.07938429 0.047936447 0.81567234 4291347649
-0.078355782 0.047819525 0.81368279 4292465875
-0.076498501 0.047702596 0.81169319 4294110957
-0.074649401 0.04758567 0.80970359 4294900473
-0.072898477 0.047527432 0.80871266 4294900475
-0.071063638 0.047410499 0.80672294 4294966268
-0.069322899 0.047352258 0.80573195 4294900989
-0.067586221 0.047294017 0.80474097 4294835196
-0.066761158 0.047294471 0.80474865 4294835196
-0.064444192 0.047412321 0.80675387 4294769403
-0.062944718 0.047530171 0.80875921 4294835451
-0.061588388 0.047765419 0.81276214 4294967036
-0.060068361 0.047883272 0.81476748 4294967293
-0.058468517 0.047942426 0.81577408 4294835707
-0.056934085 0.048060291 0.8177796 4294967036
-0.055323936 0.048119452 0.81878626 4294967036
-0.053709652 0.048178613 0.81979293 4294900989
-0.052154634 0.048296481 0.8217985 4294966782
-0.050530042 0.048355643 0.82280523 4294966782
-0.04890132 0.048414808 0.82381195 4294967039
-0.047268465 0.048473977 0.82481873 4294967039
-0.045686677 0.048591848 0.82682443 4294967039
-0.044096656 0.04870972 0.82883012 4294967039
-0.04244731 0.048768893 0.82983696 4294967039
-0.04089193 0.048945479 0.83284169 4294967039
-0.039230224 0.049004652 0.8338486 4294703864
-0.037654277 0.049181245 0.83685338 4294177520
-0.036023103 0.049299125 0.83885926 4293980141
-0.034424551 0.049475722 0.84186417 4293782762
-0.032736067 0.049534906 0.84287119 4293716199
-0.031080205 0.0496528 0.84487724 4293716197
-0.029346708 0.049653277 0.84488535 4293650404
-0.027645828 0.04971246 0.84589243 4293387232
-0.025910217 0.049712937 0.84590054 4293058267
-0.025072094 0.049772125 0.84690768 4292992474
-0.023361899 0.049831312 0.84791481 4292794837
-0.021647571 0.049890503 0.84892195 4292860630
-0.019929113 0.049949698 0.84992915 4292860630
-0.018185142 0.049950175 0.84993732 4292992216
-0.016441138 0.049950656 0.84994549 4292926423
-0.014679828 0.049892418 0.84895456 4292794837
-0.012907357 0.04977547 0.8469646 4292531665
-0.011156228 0.049717233 0.84597361 4292465872
-0.0094202925 0.049717713 0.84598178 4291940041
-0.007684323 0.04971819 0.84598988 4291940041
-0.00594832 0.049718663 0.84599799 4291808455
-0.0042122831 0.04971914 0.8460061 4291478975
-0.0033442688 0.049719617 0.8460142 4291150010
-0.0016100735 0.049778815 0.84702146 4290952631
0.00012810479 0.049779292 0.84702957 4290689459
0.0018663164 0.049779769 0.84703773 4290623920
0.0036045613 0.049780246 0.84704584 4290557875
0.0053428398 0.049780723 0.847054 4290492082
0.007089504 0.049839921 0.84806126 4290097324
0.0088299001 0.049840402 0.84806943 4289636773
0.010582782 0.0498996 0.84907675 4289439394
0.012325295 0.049900081 0.84908491 4289373599
0.014067842 0.049900558 0.84909302 4288913048
0.015829029 0.049959764 0.85010046 4288386706
0.017573692 0.049960244 0.85010862 4287926413
0.019318391 0.049960721 0.85011679 4287729034
0.021087879 0.050019931 0.85112423 4287795082
0.022861501 0.050079133 0.85213161 4287794569
0.024610404 0.050079614 0.85213983 4287662983
0.025514875 0.050138824 0.85314727 4287531397
0.027265882 0.050139304 0.85315543 4287399811
0.029016927 0.050139785 0.85316366 4287005053
0.03080404 0.050198998 0.85417116 4286544502
0.032557201 0.050199475 0.85417932 4285688677
0.03435054 0.050258689 0.85518688 4286215021
0.036148008 0.050317902 0.85619444 4286215021
0.037905373 0.050318386 0.85620266 4290294703
0.039662775 0.050318867 0.85621089 4294373870
0.041420206 0.050319351 0.85621911 4293189596
0.043228067 0.050378565 0.85722667 4293255389
0.044987619 0.050379049 0.8572349 4293058267
0.0467472 0.05037953 0.85724312 4293123803
0.048506822 0.050380018 0.85725135 4293058267
-0.10718697 0.051718947 0.85033107 4289111207
-0.10531922 0.05165872 0.84934092 4289111464
-0.10369903 0.051719937 0.8503474 4289177000
-0.1021944 0.051841881 0.85235226 4289177000
-0.10044625 0.051842377 0.85236043 4289111718
-0.098929271 0.051964324 0.85436541 4289177511
-0.09740407 0.052086268 0.85637039 4287795858
-0.094978571 0.051722422 0.85038823 4282532418
-0.093112558 0.051176392 0.84141076 4281479215
-0.090519264 0.050691076 0.83343148 4282005044
-0.088805653 0.050205752 0.82545203 4282860609
-0.086269654 0.049720421 0.81747258 4284242264
-0.08407633 0.049417261 0.8124882 4285557867
-0.082731999 0.049114093 0.8075037 4285755247
-0.080674693 0.048871648 0.80351758 4287005313
-0.078731954 0.048689932 0.8005299 4288321173
-0.076897621 0.048568938 0.79854059 4289702569
-0.075793624 0.048387215 0.79555279 4290492342
-0.074068695 0.048326947 0.79456192 4292202958
-0.072347835 0.048266675 0.793571 4293387232
-0.070542052 0.048145678 0.79158157 4293781991
-0.068831377 0.048085406 0.7905907 4294242543
-0.067209639 0.048085868 0.79059827 4294572278
-0.065587878 0.048086327 0.79060584 4294769914
-0.063966088 0.048086796 0.79061347 4294900989
-0.062501751 0.048208725 0.79261816 4294901245
-0.061105881 0.048391394 0.79562151 4294901246
-0.05962304 0.048513331 0.79762632 4294901246
-0.058059383 0.048574537 0.79863262 4294900989
-0.056632686 0.04875721 0.80163604 4294834939
-0.054988176 0.04875768 0.80164373 4294769403
-0.053410083 0.048818886 0.80265009 4294834939
-0.051827859 0.048880097 0.80365646 4294901246
-0.050179154 0.048880566 0.80366415 4294901246
-0.04859072 0.048941772 0.80467051 4294967293
-0.047056414 0.049063724 0.80667555 4294967039
-0.045457676 0.049124938 0.80768204 4294967039
-0.043908965 0.049246896 0.80968714 4294967293
-0.042352021 0.049368851 0.81169224 4294967036
-0.040836915 0.049551554 0.81469619 4294900989
-0.039213464 0.049612775 0.81570268 4294571766
-0.037677806 0.049795486 0.81870675 4294176750
-0.036173727 0.050038945 0.8227095 4293650404
-0.034653235 0.050282411 0.82671243 4293387232
-0.033036675 0.050404385 0.82871783 4293058267
-0.031487424 0.050647851 0.83272082 4292992217
-0.029778881 0.050648339 0.8327288 4292926423
-0.028070303 0.050648823 0.83273679 4292926423
-0.026393311 0.05071006 0.83374357 4292597458
-0.024741756 0.050832044 0.83574921 4292400079
-0.023054453 0.050893284 0.83675605 4292136908
-0.021388484 0.051015269 0.83876169 4292005322
-0.019714288 0.051137265 0.84076744 4292005322
-0.01801049 0.051198505 0.84177434 4292071115
-0.016302556 0.051259749 0.84278125 4291873735
-0.014590492 0.051320992 0.84378821 4291873735
-0.012843852 0.051260736 0.84279746 4291676356
-0.011114449 0.051261224 0.8428055 4291544770
-0.0093961367 0.051322468 0.84381247 4290887353
-0.0076646185 0.051322963 0.84382057 4290953146
-0.0059330673 0.051323455 0.84382868 4290755767
-0.0050673033 0.05132395 0.84383678 4290624181
-0.0033356934 0.051324442 0.84384489 4290163628
-0.0016059495 0.051385693 0.84485197 4290163115
0.00012777667 0.051386185 0.84486008 4289965736
0.0018615362 0.05138668 0.84486818 4289768357
0.0035995799 0.051447935 0.84587526 4289768357
0.0053354558 0.051448427 0.84588337 4289570978
0.0070797163 0.051509678 0.84689045 4289242013
0.0088177091 0.051510174 0.84689856 4288913050
0.010568187 0.051571429 0.8479057 4288452499
0.012308297 0.051571924 0.84791386 4288386704
0.014048439 0.05157242 0.84792197 4288057739
0.015788617 0.051572915 0.84793013 4287597190
0.017528826 0.051573411 0.84793824 4287465605
0.01926907 0.051573906 0.84794641 4287070847
0.021034099 0.051635165 0.8489536 4286873468
0.022803264 0.051696427 0.84996086 4286939260
0.023675594 0.051696923 0.84996897 4286741881
0.025449945 0.051758185 0.85097623 4286741881
0.027228428 0.051819447 0.85198349 4286741365
0.029011045 0.051880714 0.85299075 4286543986
0.0307978 0.05194198 0.85399806 4286543986
0.032550603 0.051942479 0.85400623 4286149231
0.034343582 0.052003749 0.85501361 4286280560
0.036140688 0.052065019 0.85602099 4286280560
0.037897695 0.052065514 0.85602915 4285820010
0.039654735 0.052066013 0.85603738 4290754741
0.041411813 0.052066516 0.8560456 4293846755
0.043168921 0.052067015 0.85605383 4293451998
0.044978503 0.052128289 0.85706121 4292992217
0.046737727 0.052128788 0.85706943 4293057756
0.048496995 0.052129287 0.85707766 4293123549
-0.10716522 0.053453729 0.85015857 4289045927
-0.10529786 0.053391486 0.84916866 4289045927
-0.10367798 0.053454753 0.8501749 4289045927
-0.10217367 0.053580787 0.85217941 4288980134
-0.1005435 0.053644061 0.85318571 4288980134
-0.099140368 0.053832859 0.85618848 4288914341
-0.09761139 0.053958897 0.8581931 4289177513
-0.095182277 0.053582847 0.85221213 4286677379
-0.092872746 0.052767452 0.83924365 4285164139
-0.090589799 0.051952049 0.82627499 4284045401
-0.087821119 0.051324911 0.81630069 4282927176
-0.085304052 0.050823297 0.80832273 4283124042
-0.083953865 0.050509963 0.80333924 4283453007
-0.081794746 0.050196625 0.7983557 4283584334
-0.07985653 0.050008811 0.79536861 4283847249
-0.078028731 0.049883753 0.79337966 4284241494
-0.077021115 0.049758699 0.79139072 4284307287
-0.075302713 0.049696416 0.79040009 4284241751
-0.073495306 0.04957135 0.78841102 4284834144
-0.071878098 0.049571827 0.78841859 4285426281
-0.070082925 0.049446762 0.78642952 4285755246
-0.068382829 0.049384471 0.78543878 4285886832
-0.066771671 0.049384948 0.78544635 4286742141
-0.065160476 0.049385417 0.78545386 4287465864
-0.06427338 0.049323119 0.78446305 4287794827
-0.062823683 0.049449138 0.78646731 4288123792
-0.061288059 0.049512383 0.7874732 4288255380
-0.059748307 0.049575634 0.78847915 4288189587
-0.058204431 0.049638886 0.78948516 4288058001
-0.05665642 0.049702134 0.7904911 4287860622
-0.055034783 0.049702618 0.79049873 4287729036
-0.053480573 0.04976587 0.79150474 4287729036
-0.051922228 0.049829122 0.79251075 4288058001
-0.050296396 0.049829599 0.79251832 4288650138
-0.048670534 0.049830075 0.79252595 4289110689
-0.047163177 0.049956113 0.79453051 4289571240
-0.045590371 0.050019369 0.79553658 4289768619
-0.044013444 0.050082631 0.7965427 4289965998
-0.042485509 0.050208677 0.79854739 4290294962
-0.040949345 0.050334714 0.80055201 4290558133
-0.039404955 0.05046076 0.80255669 4290623927
-0.037899323 0.050649591 0.80555999 4290952891
-0.036381364 0.050838426 0.80856335 4291150013
-0.034893963 0.05109005 0.81256527 4291215806
-0.033267643 0.051153321 0.81357157 4291347392
-0.03171476 0.051342163 0.81657505 4291215806
-0.030076085 0.051405445 0.81758147 4291347391
-0.028467963 0.051531505 0.81958646 4291347391
-0.026818981 0.051594786 0.82059294 4291215805
-0.02522704 0.051783644 0.8235966 4291150012
-0.023594234 0.051909711 0.8256017 4290689974
-0.021953205 0.052035794 0.82760692 4290558388
-0.020303942 0.052161869 0.82961208 4290361009
-0.018646454 0.052287947 0.83161736 4290295214
-0.016125392 0.05241403 0.83362257 4289966249
-0.014449389 0.05254012 0.83562797 4290097835
-0.012749934 0.052603409 0.83663464 4290097835
-0.011905811 0.052666705 0.8376413 4290163628
-0.010199126 0.052730002 0.83864802 4290031529
-0.0084883096 0.052793298 0.83965474 4290097322
-0.0067572678 0.052731015 0.83866411 4289965736
-0.0050422866 0.052794315 0.8396709 4289834150
-0.0033231738 0.052857619 0.84067774 4289636771
-0.0015999286 0.052920923 0.84168452 4289636771
0.00012744867 0.052984226 0.8426913 4289505185
0.0018567576 0.052984733 0.84269941 4289373599
0.0035860997 0.052985243 0.84270751 4289307806
0.0053217746 0.053048551 0.84371436 4289242015
0.0070615825 0.053111855 0.84472126 4288978843
0.0088055227 0.053175166 0.84572816 4288649878
0.010541147 0.053175677 0.84573627 4288386706
0.012276805 0.053176187 0.84574437 4288123534
0.014012495 0.053176694 0.84575248 4287860362
0.01574822 0.053177208 0.84576064 4287531398
0.017483978 0.053177722 0.84576875 4287202433
0.019242465 0.053241029 0.84677571 4287070847
0.021005087 0.053304344 0.84778267 4286873468
0.021900939 0.053367656 0.84878963 4286807675
0.023642974 0.05336817 0.8487978 4286807675
0.025414912 0.053431492 0.84980488 4286610296
0.027190987 0.053494811 0.85081196 4286610296
0.028971191 0.053558126 0.85181898 4286544503
0.030755533 0.053621449 0.85282606 4286478710
0.032544006 0.053684767 0.85383314 4286544502
0.034296494 0.053685281 0.85384136 4286347121
0.03609119 0.053748611 0.85484856 4286347121
0.037890013 0.053811934 0.8558557 4285557607
0.0396467 0.053812452 0.85586393 4286741881
0.041403417 0.053812966 0.85587209 4292334284
0.043210547 0.053876296 0.85687929 4293715167
0.044969387 0.053876814 0.85688752 4293451997
0.046728261 0.053877328 0.85689574 4293123803
0.048543692 0.053940658 0.857903 4293189596
-0.10714348 0.05518781 0.84998614 4289177000
-0.10540024 0.055188335 0.8499943 4289111463
-0.10365696 0.055188868 0.85000247 4289045670
-0.10215294 0.055318985 0.85200649 4289045927
-0.1005231 0.055384312 0.85301262 4288980134
-0.099120259 0.055579234 0.85601479 4289045927
-0.097591586 0.055709366 0.85801899 4288980134
-0.095274441 0.05538591 0.85303724 4288914341
-0.093185231 0.054673661 0.84206742 4289374378
-0.090048969 0.053831805 0.82910138 4288979619
-0.088018052 0.053119536 0.81813121 4288782240
-0.085602716 0.052666441 0.81115282 4287597966
-0.084041141 0.052213345 0.80417436 4287005829
-0.08188042 0.051889844 0.79919189 4286281592
-0.079940535 0.051695935 0.79620534 4285755246
-0.078826793 0.051502023 0.79321879 4285492074
-0.077005498 0.051372912 0.79123026 4285294695
-0.075192362 0.051243801 0.78924173 4284965730
-0.073480412 0.051179484 0.78825116 4284833631
-0.071863532 0.051179979 0.78825873 4284833888
-0.070068717 0.051050857 0.78627008 4284768351
-0.068368971 0.05098654 0.78527951 4284702559
-0.066758133 0.050987035 0.78528708 4284505180
-0.065147266 0.050987519 0.78529459 4284307800
-0.064260349 0.050923206 0.78430402 4284242007
-0.062731214 0.050988503 0.78530967 4283913042
-0.061197944 0.0510538 0.78631538 4283518286
-0.05966055 0.0511191 0.78732109 4283584079
-0.058045443 0.051119588 0.78732866 4283452491
-0.05650185 0.051184893 0.78833443 4283320905
-0.054884631 0.051185384 0.788342 4283255112
-0.053267382 0.051185876 0.78834957 4283189317
-0.051715501 0.05125118 0.7893554 4282991681
-0.050096143 0.051251672 0.78936297 4282662716
-0.048476756 0.051252164 0.78937054 4282596669
-0.046916585 0.051317472 0.79037637 4282530876
-0.045295089 0.051317967 0.79038399 4282465339
-0.043728717 0.051383272 0.79138982 4282728768
-0.042158216 0.05144858 0.79239571 4283123269
-0.040583588 0.051513892 0.7934016 4283320905
-0.039004836 0.051579207 0.79440755 4283715663
-0.037515894 0.051774159 0.79741013 4284373593
-0.035969712 0.051904295 0.79941446 4285097057
-0.034458168 0.05209925 0.8024171 4285754987
-0.032893486 0.052229393 0.80442154 4286347124
-0.03135936 0.052424364 0.80742437 4286807675
-0.029702725 0.052424863 0.80743212 4287334019
-0.02811541 0.05255501 0.80943656 4287860363
-0.026519874 0.052685156 0.81144106 4288057742
-0.024916114 0.052815311 0.81344569 4288320914
-0.023332659 0.053010292 0.81644869 4288518293
-0.021736881 0.053205278 0.81945181 4288386707
-0.020104343 0.053335443 0.82145655 4288452500
-0.018485965 0.053530425 0.82445967 4288649879
-0.016834926 0.053660598 0.82646453 4288649879
-0.015175657 0.053790767 0.82846934 4288649879
-0.013508162 0.05392094 0.83047426 4288584086
-0.011832438 0.054051112 0.83247912 4288649879
-0.010148485 0.054181289 0.83448404 4288584085
-0.0084462129 0.054246645 0.83549064 4288584085
-0.0067398078 0.054311994 0.83649713 4288584085
-0.0050172801 0.054247685 0.83550668 4288452499
-0.0033067113 0.054313038 0.83651316 4288320913
-0.001592012 0.05437839 0.83751976 4288255120
0.00012666773 0.054378912 0.83752775 4288189327
0.0018475805 0.054444268 0.83853436 4288255120
0.0035726246 0.054509625 0.83954096 4288255120
0.0053018006 0.054574985 0.84054762 4288320913
0.0070267604 0.054575514 0.84055573 4288057741
0.0087621491 0.054640867 0.84156233 4287728776
0.010501671 0.054706231 0.84256899 4287662983
0.012230827 0.054706756 0.8425771 4287399811
0.01396002 0.054707278 0.84258521 4287268225
0.015707837 0.054772642 0.84359187 4287005053
0.016573565 0.054773167 0.84359998 4286807674
0.018304897 0.054773696 0.84360808 4286610296
0.020059982 0.05483906 0.84461486 4286478710
0.021819199 0.054904431 0.84562165 4286412917
0.023554727 0.054904956 0.84562975 4286347124
0.025290292 0.054905482 0.84563786 4286347124
0.027089724 0.055035695 0.84764338 4286281331
0.028863421 0.055101067 0.84865022 4286281331
0.030641252 0.055166446 0.84965712 4286215538
0.032461278 0.055296659 0.8516627 4286215537
0.034249421 0.055362035 0.85266954 4286083951
0.036041703 0.055427413 0.8536765 4286083951
0.037793901 0.055427946 0.85368466 4285886573
0.0395924 0.055493329 0.85469168 4285097057
0.041346714 0.055493865 0.85469991 4291084220
0.043151427 0.055559244 0.85570687 4292794838
0.044907857 0.055559777 0.8557151 4292992217
0.046718787 0.055625156 0.85672206 4292926424
0.048533853 0.055690538 0.85772908 4293123803
-0.10712175 0.056921173 0.84981364 4289177000
-0.10525513 0.056854893 0.84882408 4289177000
-0.10363592 0.056922268 0.84982997 4289177000
-0.10201259 0.056989647 0.85083592 4289111207
-0.10038512 0.057057023 0.85184181 4289111720
-0.098869085 0.057191238 0.8538456 4288980134
-0.097231321 0.057258617 0.85485154 4288980134
-0.095255107 0.057125498 0.85286415 4288782755
-0.09371841 0.056725051 0.84688556 4288979878
-0.091114424 0.056190923 0.83891124 4288979621
-0.088436835 0.055589959 0.82993907 4288782241
-0.086638391 0.054988977 0.8209666 4288584861
-0.084128447 0.054454818 0.8129918 4288190103
-0.082681678 0.054054324 0.80701256 4288058003
-0.080325074 0.053586982 0.8000353 4287465866
-0.078389645 0.053386979 0.79704934 4287202436
-0.077184111 0.053120144 0.79306555 4287136899
-0.075367242 0.052986972 0.79107738 4286939520
-0.073558539 0.052853808 0.78908926 4286675837
-0.07193993 0.052854314 0.78909683 4286478458
-0.070054501 0.0526543 0.78611064 4286149493
-0.068355106 0.052587967 0.78512031 4285754735
-0.066744596 0.052588467 0.78512782 4285557869
-0.062718496 0.052589986 0.78515047 4285952627
-0.061185535 0.052657332 0.78615594 4285821041
-0.059648458 0.052724682 0.78716147 4285755248
-0.058033675 0.052725192 0.78716904 4285689455
-0.056490391 0.052792542 0.78817457 4285491818
-0.054873504 0.052793048 0.78818214 4285163109
-0.053256582 0.052793555 0.78818971 4285031267
-0.051639628 0.052794062 0.78819728 4284899424
-0.050022643 0.052794572 0.78820485 4284899424
-0.048405632 0.052795075 0.78821242 4284767838
-0.046847831 0.052862436 0.78921807 4284570459
-0.045285907 0.052929796 0.79022372 4284373080
-0.043664701 0.052930303 0.79023129 4284175701
-0.042096566 0.052997664 0.79123694 4283780943
-0.040524311 0.053065028 0.79224265 4283715150
-0.038947925 0.053132389 0.79324836 4283649611
-0.037367415 0.053199757 0.79425412 4283320646
-0.035827685 0.053333975 0.79625797 4283123012
-0.034322597 0.053535055 0.79926002 4282991427
-0.032723561 0.053602427 0.80026585 4282794048
-0.031159161 0.053736649 0.80226982 4282465083
-0.029549822 0.053804025 0.8032757 4282399544
-0.027971026 0.053938258 0.80527973 4282794302
-0.026384007 0.054072496 0.80728388 4283057474
-0.024788762 0.054206733 0.80928797 4283583818
-0.023213822 0.054407835 0.81229037 4284175954
-0.021626558 0.054608941 0.81529278 4284570712
-0.020002546 0.054743193 0.8172971 4284965470
-0.018370306 0.054877438 0.81930137 4285294435
-0.016750176 0.055078551 0.82230395 4285820779
-0.015099437 0.055212811 0.82430834 4286215537
-0.013440473 0.05534707 0.82631278 4286807674
-0.011759094 0.055414464 0.82731897 4287070846
-0.010085726 0.055548724 0.82932347 4287136639
-0.0083940402 0.055616133 0.83032978 4287268225
-0.0066982238 0.055683531 0.83133602 4287334018
-0.004986288 0.055617198 0.83034569 4287202432
-0.0032863095 0.0556846 0.831352 4287202432
-0.0015822008 0.055752002 0.8323583 4287202433
0.00012588711 0.055752538 0.83236629 4287202432
0.0018362075 0.05581994 0.83337259 4287202432
0.003550658 0.055887345 0.83437896 4287268225
0.0052692392 0.055954758 0.83538538 4287334018
0.0069919508 0.056022163 0.83639175 4287202432
0.0087187933 0.056089576 0.83739817 4286939260
0.010449766 0.056156989 0.8384046 4286873467
0.012184869 0.056224398 0.83941102 4286741881
0.013046275 0.056224938 0.83941907 4286676088
0.014786559 0.056292355 0.84042561 4286610295
0.01651136 0.056292899 0.84043366 4286281330
0.018257856 0.056360316 0.8414402 4286149745
0.019984772 0.056360856 0.84144825 4286018159
0.021711722 0.056361396 0.84145635 4285886573
0.023438703 0.056361936 0.8414644 4285952366
0.025195578 0.056429356 0.84247094 4285952366
0.026956588 0.056496777 0.84347755 4285886573
0.028687768 0.056497321 0.84348565 4285886573
0.030491002 0.056631628 0.84549081 4285886573
0.032340519 0.056832809 0.84849441 4285952365
0.034202371 0.057034008 0.85149819 4285886572
0.035992239 0.057101432 0.85250485 4285754987
0.037786238 0.057168864 0.85351157 4285689192
0.039584372 0.057236306 0.85451841 4284636506
0.041338328 0.05723685 0.85452658 4289373602
0.043142676 0.057304285 0.85553336 4292531666
0.044898752 0.057304833 0.85554159 4292531666
0.046709318 0.057372272 0.85654837 4292400079
0.048467509 0.05737282 0.85655659 4293321181
-0.10710001 0.058653835 0.8496412 4289177000
-0.10535747 0.058654398 0.84964937 4289177000
-0.1036149 0.058654964 0.84965754 4289111207
-0.10199189 0.058724392 0.85066324 4289111207
-0.1002472 0.058724958 0.85067141 4289045414
-0.0987335 0.058863249 0.85267466 4288980134
-0.09687119 0.058794949 0.85168529 4288848548
-0.095124356 0.058795515 0.85169351 4288848548
-0.09304937 0.058589481 0.84870893 4288914341
-0.091746047 0.058314569 0.84472668 4288782755
-0.08948192 0.057970788 0.83974677 4288387741
-0.087342486 0.057695866 0.83576435 4287861139
-0.085969597 0.05735207 0.8307842 4287729552
-0.083456047 0.056801654 0.82281107 4287005572
-0.081074335 0.056320094 0.81583536 4286610557
-0.07955119 0.055838536 0.80885965 4286412921
-0.077411696 0.055494707 0.80387902 4286215285
-0.075292654 0.055150878 0.7988984 4285820528
-0.07419464 0.05494478 0.79591298 4285623149
-0.072380126 0.054807562 0.79392523 4285228391
-0.070307031 0.054463707 0.7889443 4284899426
-0.068514965 0.054326478 0.78695643 4284570459
-0.066900685 0.054327 0.786964 4284439129
-0.065286383 0.054327525 0.78697157 4284505179
-0.06439779 0.05425917 0.78598142 4284439386
-0.062944874 0.054397445 0.78798443 4284570972
-0.061406091 0.054466847 0.78898978 4284702045
-0.059787579 0.054467373 0.78899741 4284833631
-0.05816903 0.054467898 0.78900498 4284899424
-0.056621965 0.0545373 0.79001033 4285031010
-0.054931842 0.054468945 0.78902012 4285162596
-0.053380623 0.054538351 0.79002553 4285228646
-0.051694531 0.054469988 0.78903526 4285360488
-0.050075833 0.054470513 0.78904289 4285360488
-0.048518378 0.054539919 0.7900483 4285557355
-0.046897564 0.054540444 0.79005587 4285359976
-0.045333903 0.054609854 0.79106128 4285228391
-0.043710984 0.054610375 0.79106891 4285557355
-0.042088028 0.054610901 0.79107648 4285623660
-0.040567134 0.054749198 0.79307985 4285755246
-0.038940024 0.054749727 0.79308748 4285689453
-0.03740678 0.054888032 0.79509091 4285492074
-0.035865318 0.055026338 0.7970944 4285359975
-0.034315638 0.05516465 0.79909796 4285162596
-0.032716922 0.055234071 0.80010355 4284833631
-0.031152841 0.055372383 0.8021071 4284438873
-0.029507115 0.055372916 0.80211478 4284044115
-0.027930688 0.055511232 0.80411845 4283583564
-0.026346039 0.055649556 0.80612212 4283189061
-0.024753168 0.055787884 0.80812591 4283057474
-0.023152072 0.055926207 0.81012964 4282991427
-0.021569228 0.056133438 0.81313145 4282794048
-0.019949635 0.056271765 0.81513524 4282925634
-0.018344201 0.056479 0.81813717 4282859841
-0.016706118 0.056617338 0.82014108 4282860095
-0.015059812 0.056755681 0.8221451 4282860095
-0.01340528 0.056894023 0.82414907 4283123267
-0.011742524 0.057032369 0.82615316 4283649611
-0.010059405 0.05710182 0.82715917 4284175955
-0.0083721578 0.057171267 0.82816517 4284504920
-0.0066807815 0.057240717 0.82917118 4285162850
-0.0049792831 0.057241268 0.82917917 4285557608
-0.0032777518 0.057241816 0.82918715 4285886573
-0.0015761879 0.057242367 0.82919508 4286083952
0.00012540871 0.057242919 0.82920307 4286347124
0.0018292373 0.057312377 0.8302092 4286544503
0.0035371955 0.057381831 0.83121532 4286347636
0.0052492828 0.057451289 0.83222145 4286281843
0.0061105643 0.057520747 0.83322763 4286281843
0.0078392476 0.057659119 0.83523202 4286150257
0.0095647397 0.057728581 0.83623821 4285952623
0.011280897 0.057729132 0.83624625 4286084209
0.013012601 0.057798594 0.83725244 4285952623
0.014748435 0.05786806 0.83825868 4285952625
0.016468788 0.057868622 0.83826679 4285821039
0.018189175 0.057869177 0.83827484 4285820780
0.019909594 0.057869729 0.83828288 4285623401
0.021630047 0.057870284 0.83829093 4285557608
0.023378339 0.057939753 0.83929724 4285491815
0.025100904 0.057940312 0.83930528 4285557608
0.026823504 0.057940867 0.83931333 4285557608
0.028580092 0.058010343 0.84031975 4285557608
0.030340809 0.058079816 0.84132612 4285557608
0.032143708 0.058218207 0.8433308 4285689191
0.034075137 0.058563355 0.8483305 4285557605
